1.320500 0.802376 -0.630777 
1.087620 0.131513 -0.046781 
0.966318 0.767519 0.070997 
1.582940 1.797810 -0.692095 
1.061770 0.064886 0.053909 
0.906816 0.982346 0.195910 
0.933954 0.521493 0.171761 
1.027520 0.224789 0.067093 
1.386860 1.745490 -0.271765 
1.229130 1.915140 -0.159299 
1.175560 1.060510 -0.383456 
1.201340 -0.210168 -0.097035 
1.182930 -0.490017 0.207304 
1.254430 1.974610 0.174082 
0.952424 1.135410 0.175530 
1.225020 1.191590 -0.567729 
1.785710 -0.443561 -0.883037 
0.954601 0.764956 0.113717 
0.925673 0.580227 0.182895 
1.576920 1.782830 -0.688991 
1.526810 -0.507088 -0.488981 
1.423110 1.423600 -0.748394 
1.063300 -0.090834 0.173786 
1.194090 1.909910 0.272022 
1.002860 1.159080 0.045031 
1.002790 0.192645 0.163864 
1.092710 1.167970 -0.294628 
1.006360 0.784132 -0.011664 
0.986650 1.176210 0.070466 
1.505450 2.141720 -0.712017 
1.443150 -0.461017 -0.152639 
1.518470 2.037130 -0.810625 
1.096920 0.009213 -0.003214 
0.953099 1.038690 0.114509 
1.824700 -0.453883 -0.882098 
1.295980 1.212790 -0.652090 
1.230820 0.812608 -0.440239 
1.007090 0.369359 0.047871 
1.402510 0.573470 -0.692671 
0.925753 0.580610 0.183073 
1.291000 1.206320 -0.651564 
1.021060 0.208561 0.074902 
1.414200 -0.514485 -0.315623 
0.979711 1.268060 -0.002799 
0.929642 0.944392 0.195622 
1.122710 1.488080 -0.079610 
1.347980 -0.517128 -0.165428 
1.229880 0.146862 -0.314671 
1.126320 1.199730 -0.354516 
1.436600 -0.130608 -0.525366 
1.296650 1.216160 -0.652164 
1.090440 1.196970 -0.289165 
0.942088 0.433809 0.183796 
0.964621 0.160940 0.242087 
1.257680 -0.379875 -0.131823 
1.211790 0.481898 -0.387312 
0.948770 0.846205 0.037200 
1.015120 1.211380 -0.109120 
1.075690 1.003190 -0.174630 
1.096030 0.800995 -0.260308 
0.911739 0.450206 0.254881 
0.985734 1.190810 0.083991 
1.408940 0.549194 -0.717592 
1.001450 1.043780 -0.004322 
1.008910 1.258020 -0.035866 
1.169770 0.375656 -0.304301 
1.105950 -0.308698 0.241641 
1.400610 1.399270 -0.742898 
0.958389 1.256180 0.103097 
1.007710 0.626251 -0.014526 
1.466670 1.765180 -0.359818 
1.309620 0.882507 -0.613968 
1.432370 0.554880 -0.721399 
1.233900 1.785360 0.044530 
1.030310 0.589101 -0.064203 
1.421050 -0.347927 -0.223302 
1.019850 1.239870 -0.136074 
1.033490 0.929334 -0.097328 
1.321000 1.150400 -0.635396 
0.874702 0.653607 0.357601 
0.953190 0.669529 0.109278 
1.356930 2.044160 -0.193070 
0.958331 1.143280 0.181341 
1.488280 1.746170 -0.582987 
1.042480 0.423522 -0.071213 
1.063290 0.891198 -0.154499 
1.431790 0.623868 -0.754175 
1.474640 -0.550709 -0.296313 
1.395450 -0.341561 -0.225443 
1.365370 2.102680 -0.193162 
1.209180 1.938690 0.283388 
1.598210 -0.259461 -0.685196 
1.059500 0.708585 -0.155428 
0.971730 0.626264 0.063248 
0.982418 1.316140 0.056617 
1.633150 -0.028023 -0.846388 
1.002480 1.043890 -0.003735 
0.985495 0.050649 0.278987 
1.279310 -0.503044 -0.055114 
1.238130 -0.021622 -0.258434 
0.963710 0.764495 0.069312 
1.694700 -0.569274 -0.778267 
1.351450 1.177260 -0.679354 
1.376510 0.594442 -0.681013 
1.071830 1.074550 -0.150593 
1.296000 0.328030 -0.506057 
1.004000 0.170260 0.180435 
1.355730 -0.517994 -0.163019 
1.109600 -0.007795 0.028323 
1.028010 0.587870 -0.066540 
1.102410 0.033870 -0.026651 
1.089580 1.163910 -0.294592 
1.426270 2.170140 -0.293297 
1.311580 0.356762 -0.512082 
1.519380 2.036330 -0.811164 
1.419340 0.284283 -0.668422 
1.204750 1.289650 -0.495838 
1.531270 1.853980 -0.670284 
1.130890 1.498450 -0.068527 
1.073850 1.250300 -0.191210 
1.127700 0.249429 -0.173512 
0.980451 0.970993 0.040959 
1.409800 1.380650 -0.846711 
1.394660 -0.512146 -0.318139 
1.161600 1.205850 -0.422925 
1.338240 -0.140670 -0.367732 
1.229210 0.503506 -0.426751 
1.246190 1.819700 -0.128635 
1.532140 2.057020 -0.812105 
1.158660 1.201410 -0.424819 
1.230420 1.859720 -0.139714 
1.511610 0.117615 -0.729437 
1.068600 0.064740 0.057499 
0.938675 0.861516 0.154381 
1.106960 0.814424 -0.257644 
1.422460 -0.342367 -0.220049 
0.982291 0.474504 0.063891 
1.363390 -0.304843 -0.348102 
1.209340 0.798755 -0.442450 
1.328930 0.228061 -0.496152 
1.232370 1.170550 -0.559655 
1.058510 0.707645 -0.156412 
1.533120 1.859440 -0.666976 
1.351540 1.178730 -0.678641 
1.050550 0.407606 -0.084765 
1.324210 0.339077 -0.505606 
1.171530 0.990588 -0.372290 
0.940588 1.070050 0.120481 
1.403530 0.543786 -0.717339 
1.115070 0.145202 -0.108256 
1.429210 -0.345305 -0.217349 
1.553570 1.750230 -0.686036 
1.063310 0.890867 -0.154811 
1.191750 -0.335058 0.089520 
1.024480 0.403918 -0.015338 
1.162200 0.687983 -0.337702 
1.383870 0.599636 -0.681343 
1.418310 -0.457820 -0.342815 
1.267640 -0.067007 -0.260862 
1.555680 2.304010 -0.610593 
1.209590 0.636522 -0.422211 
1.203390 1.166610 -0.523533 
1.243720 1.898050 -0.175820 
1.063330 -0.090691 0.171188 
1.232290 0.146806 -0.311664 
0.993836 1.194370 -0.059358 
1.226740 1.822460 0.181418 
1.316220 0.224533 -0.499278 
1.433690 -0.133085 -0.519973 
0.945391 1.032830 0.108068 
1.386900 1.746960 -0.272519 
1.170080 0.374618 -0.304894 
0.929525 0.895315 0.165421 
1.512480 -0.335974 -0.500683 
1.163660 -0.180916 0.032363 
1.633590 -0.028366 -0.846397 
1.078140 0.239507 -0.106955 
1.322680 1.154570 -0.633332 
1.395650 1.685780 -0.316598 
1.054620 0.489341 -0.091715 
1.419110 1.455020 -0.753190 
0.938650 1.068650 0.118491 
1.504300 -0.528362 -0.408243 
1.051620 0.488492 -0.095613 
1.195840 -0.496811 0.218912 
0.980592 0.475276 0.071611 
1.248390 -0.357713 0.008182 
1.527090 2.085850 -0.604716 
1.509890 1.884070 -0.555361 
1.533950 2.167800 -0.582512 
1.214880 0.482932 -0.387819 
1.022540 0.125694 0.081279 
1.019570 1.179530 -0.072244 
1.083780 0.639401 -0.220898 
1.107510 1.460070 -0.081020 
1.292160 -0.374916 -0.121799 
1.379140 1.290180 -0.829861 
1.644290 0.168410 -0.932321 
1.096010 0.801085 -0.264011 
1.509520 2.324780 -0.488839 
1.819190 -0.131646 -1.029600 
1.150730 0.129074 -0.157922 
1.457930 1.179690 -0.845676 
1.291790 0.800958 -0.592360 
1.826560 -0.426542 -0.958948 
1.489000 -0.523534 -0.412053 
1.083020 1.267170 -0.248066 
1.196270 0.277120 -0.317459 
1.010280 0.489142 0.000849 
1.527080 1.980700 -0.782071 
1.100720 0.804688 -0.263076 
1.202540 1.163620 -0.530195 
1.351210 1.174500 -0.679891 
1.032590 0.984199 -0.075175 
1.063390 -0.074132 0.167612 
1.157180 0.623751 -0.342168 
1.073720 1.140570 -0.163019 
1.153470 0.274601 -0.265871 
1.789810 -0.444318 -0.890319 
1.066550 1.280710 -0.214296 
0.992275 0.986347 0.051024 
1.173880 1.837890 0.362963 
1.429880 1.523890 -0.736299 
1.559010 0.431080 -0.899040 
1.469280 1.646290 -0.628751 
1.312940 0.525998 -0.585180 
1.308200 1.787060 -0.086594 
1.380090 1.134760 -0.723133 
1.137620 0.351024 -0.239331 
1.219000 1.812380 -0.073770 
1.075220 1.250390 -0.246669 
1.384030 1.294840 -0.828941 
1.523990 -0.564209 -0.530693 
1.003340 1.048370 0.049736 
1.038250 0.856616 -0.088263 
1.341490 0.018697 -0.433332 
1.363840 0.437584 -0.608701 
1.228630 0.601523 -0.462863 
1.296730 1.768940 -0.102117 
1.413520 0.124752 -0.602476 
1.115850 1.241800 -0.317354 
1.071680 0.289696 -0.067355 
1.432490 -0.444178 -0.170036 
1.075140 1.079280 -0.146534 
1.518220 0.116451 -0.729983 
1.169810 0.374030 -0.305119 
1.508920 -0.334824 -0.501042 
1.115520 1.240730 -0.316383 
1.540170 1.933720 -0.765374 
1.393540 -0.251675 -0.403973 
1.335570 0.054897 -0.407583 
1.228350 0.323685 -0.378941 
1.502380 1.989620 -0.677336 
1.838250 -0.426936 -0.961216 
1.224240 1.816120 0.176817 
1.368140 -0.294197 -0.357216 
1.422870 1.187960 -0.797666 
1.045580 0.402544 -0.089189 
1.515710 0.114777 -0.731196 
1.011830 0.707180 -0.046430 
1.436390 -0.445229 -0.166903 
1.490810 0.833267 -0.899106 
1.223310 1.134400 -0.460803 
1.188800 0.175184 -0.262260 
1.451170 0.327200 -0.741707 
1.130200 0.177812 -0.142696 
1.070540 0.759658 -0.171646 
1.429150 0.308049 -0.741437 
1.204660 1.290410 -0.495998 
1.212480 1.794880 0.165353 
1.086270 1.173450 -0.255514 
1.212290 1.202630 -0.529385 
1.411130 0.542609 -0.719880 
1.128490 0.245177 -0.158616 
1.672580 0.263941 -0.997353 
1.354600 0.107263 -0.500328 
1.071230 0.760873 -0.171064 
1.143020 1.000770 -0.329270 
1.669770 0.262042 -0.998042 
1.097520 0.243083 -0.102786 
1.232070 0.757793 -0.478277 
1.339170 0.018606 -0.434861 
1.070180 1.022580 -0.155019 
1.087710 0.481250 -0.172027 
1.487680 0.830129 -0.899855 
1.097860 0.242601 -0.101451 
1.532780 1.983620 -0.780589 
1.418920 0.616911 -0.754556 
1.084250 1.153140 -0.177038 
1.108070 0.342428 -0.176647 
1.395940 1.246760 -0.831918 
1.527450 2.054280 -0.542319 
1.420070 0.283587 -0.669455 
1.277390 1.728100 -0.131855 
1.042720 0.940475 -0.089227 
1.302280 -0.127978 -0.362579 
1.265050 0.981323 -0.559117 
1.465670 0.499360 -0.788593 
1.060090 1.165850 -0.085386 
1.030450 1.289240 -0.011929 
1.047490 0.946667 -0.083089 
1.446120 1.232330 -0.938195 
1.247660 1.774070 -0.106045 
1.233810 0.706704 -0.487854 
1.087660 0.998388 -0.196535 
1.543760 1.864810 -0.676905 
1.161040 0.801751 -0.358792 
1.428790 1.441920 -0.885989 
1.468310 0.501401 -0.787795 
1.324010 0.579431 -0.620660 
1.214260 0.567776 -0.439310 
1.518130 2.065670 -0.630544 
1.212210 1.204750 -0.530602 
1.208660 0.456435 -0.412892 
1.082220 1.170170 -0.308816 
1.089430 1.120660 -0.246610 
1.446030 1.232110 -0.938182 
1.271920 1.220160 -0.607657 
1.223560 1.138370 -0.458935 
1.106630 0.560408 -0.229383 
1.213110 0.330394 -0.364762 
1.309910 0.885383 -0.614898 
1.172630 1.123890 -0.370415 
1.258280 -0.326845 -0.119700 
1.708640 -0.498991 -0.735058 
1.233720 0.969728 -0.501315 
1.603200 0.579548 -1.000740 
1.271260 0.358793 -0.482208 
1.319030 0.477804 -0.588785 
1.064460 1.224070 -0.216062 
1.749540 0.171944 -1.061640 
1.431170 -0.134039 -0.514847 
1.056000 1.111260 -0.078395 
1.406270 0.121163 -0.604556 
1.217730 0.310303 -0.366534 
1.763660 -0.476458 -0.830425 
1.676020 0.159132 -0.938346 
1.612170 1.199690 -0.966601 
1.132630 0.839961 -0.310522 
1.485860 1.199550 -0.892319 
1.348570 1.267220 -0.748545 
1.377150 1.215520 -0.766277 
1.425130 0.419296 -0.714632 
1.387720 0.985965 -0.750368 
1.510240 0.119393 -0.729635 
1.129170 1.199650 -0.350638 
1.544380 1.864930 -0.680626 
1.612790 1.200000 -0.962958 
1.607610 -0.261074 -0.685883 
1.415220 -0.478452 -0.181379 
1.062000 1.220110 -0.217701 
1.771380 -0.289135 -0.896697 
1.087350 0.124265 -0.023981 
1.083060 0.388452 -0.143268 
1.089040 1.120940 -0.246614 
1.094910 0.567733 -0.224735 
1.486110 -0.093039 -0.618547 
1.040480 0.936605 -0.093318 
1.164660 0.805454 -0.354311 
1.607050 -0.259454 -0.685446 
1.487340 1.200660 -0.892257 
1.202110 0.097711 -0.236413 
1.093360 1.204040 -0.282107 
1.440670 -0.444373 -0.164516 
1.122350 0.030582 -0.009823 
1.558720 -0.053651 -0.745728 
1.781720 0.005948 -1.036600 
1.087360 1.195270 -0.287470 
1.274110 -0.336244 -0.113751 
1.777120 -0.294619 -0.897496 
1.416260 1.315050 -0.891137 
1.456380 1.182030 -0.843007 
1.263750 0.224997 -0.411239 
1.295100 0.326553 -0.521871 
1.689180 0.200424 -0.999112 
1.830680 -0.220465 -0.999643 
1.034420 1.237970 -0.093406 
1.424230 1.478330 -0.705048 
1.684340 0.199496 -0.999179 
1.529590 2.227400 -0.674303 
1.219740 -0.132926 -0.148483 
1.832480 -0.219183 -0.999748 
1.610290 0.231358 -0.927533 
1.487180 2.019320 -0.747741 
1.096410 0.801002 -0.265901 
1.209250 1.297130 -0.488968 
1.388390 0.987060 -0.751092 
1.064920 0.534764 -0.162265 
1.240680 0.603794 -0.463507 
1.070570 0.898666 -0.148841 
1.040520 1.185240 -0.126946 
1.245740 1.034400 -0.519310 
1.832990 -0.213710 -0.997620 
1.216530 0.567822 -0.438061 
1.489280 1.073840 -0.914930 
1.419460 1.455810 -0.752805 
1.123460 0.242231 -0.163678 
1.082330 0.771319 -0.202739 
1.414860 -0.361210 -0.394236 
1.109650 1.153710 -0.227549 
1.131280 1.202240 -0.349959 
1.202100 0.098142 -0.236870 
1.085240 0.390919 -0.138937 
1.041120 1.267520 -0.114105 
1.806680 -0.445872 -0.880250 
1.232950 0.706480 -0.488603 
1.896470 -0.416806 -1.037170 
1.498630 1.816510 -0.563541 
1.094700 1.060480 -0.220994 
1.119890 1.137330 -0.261199 
1.087890 1.274700 -0.242529 
1.485830 1.195440 -0.890393 
1.214460 0.816248 -0.457008 
1.632810 0.913420 -0.937219 
1.331520 1.261990 -0.719520 
1.188030 0.483070 -0.368303 
1.621950 1.022770 -0.965538 
1.654470 1.044950 -1.035220 
1.740380 0.172679 -1.061290 
1.612740 1.198670 -0.963838 
1.632010 0.913139 -0.938561 
1.595910 -0.399621 -0.592692 
1.079720 1.086800 -0.141620 
1.210950 0.813732 -0.458786 
1.231020 0.757974 -0.478914 
1.387160 1.749360 -0.273746 
1.185320 0.481979 -0.371757 
1.199530 0.628935 -0.426469 
1.121110 0.492082 -0.273289 
1.320920 -0.427302 -0.103221 
1.423880 0.253578 -0.680546 
1.407650 -0.458729 -0.085740 
1.612390 0.236432 -0.919039 
1.091140 0.643053 -0.217909 
1.677550 0.494655 -1.060040 
1.271140 0.358093 -0.482711 
1.402770 0.277196 -0.676106 
1.785890 -0.004980 -1.032390 
1.095220 1.382190 -0.204302 
1.161790 0.801896 -0.358305 
1.220460 1.133760 -0.460159 
1.190540 0.934813 -0.425366 
1.501690 1.991240 -0.682529 
1.435370 1.335970 -0.891358 
1.544470 2.159110 -0.838769 
1.650210 0.155015 -0.940742 
1.615240 0.220096 -0.915231 
1.669850 0.487398 -1.061930 
1.605880 0.807510 -1.037120 
1.553490 1.885560 -0.667241 
1.787510 -0.004094 -1.032550 
1.218090 1.751220 -0.075492 
1.461460 0.496680 -0.789457 
1.377350 0.233282 -0.615837 
1.149300 0.948408 -0.344688 
1.269270 -0.399163 -0.148639 
1.282510 1.209310 -0.618418 
1.091680 1.104580 -0.126957 
1.978520 -0.374895 -1.216700 
1.217430 0.399927 -0.402733 
1.388000 0.985822 -0.751015 
1.399100 1.376250 -0.823967 
1.660820 1.094030 -1.040240 
1.165880 1.143760 -0.339632 
1.659530 1.046050 -1.034880 
1.429190 1.451960 -0.884203 
1.206560 0.806867 -0.461401 
1.375810 1.112200 -0.728002 
1.214900 0.330848 -0.362436 
1.036660 1.177970 -0.132476 
1.077490 1.081760 -0.145745 
1.162180 1.141600 -0.338918 
1.234370 0.970385 -0.500468 
1.616280 1.159290 -0.953329 
1.658810 1.039650 -1.036490 
1.347630 1.264550 -0.747154 
1.575460 0.641906 -0.978656 
1.914340 -0.423282 -1.037300 
1.208670 0.455231 -0.412791 
1.607620 0.805073 -1.040520 
1.106150 0.814887 -0.257795 
1.486250 -0.094146 -0.620547 
1.065240 1.183600 -0.192366 
1.561730 -0.052643 -0.742323 
1.666500 0.260828 -0.999850 
1.417250 1.194690 -0.787149 
1.136170 0.780922 -0.305719 
1.677580 0.493253 -1.060630 
1.529560 1.627230 -0.686283 
1.196450 0.918323 -0.424389 
1.142850 1.178190 -0.358248 
1.536400 1.839610 -0.663267 
1.154260 0.554941 -0.358053 
1.312720 0.220784 -0.498572 
1.174400 0.995287 -0.369056 
1.965020 -0.398950 -1.126820 
1.973450 -0.375963 -1.218090 
1.431480 1.443590 -0.886012 
1.542370 1.861740 -0.677654 
1.545050 2.025120 -0.778354 
1.387950 0.960194 -0.756050 
1.093410 1.104720 -0.192937 
1.633330 1.218680 -0.998413 
1.213180 0.565812 -0.442786 
1.361580 0.394765 -0.631763 
1.248000 1.734150 -0.091490 
1.404320 0.120612 -0.605885 
1.265100 -0.109995 -0.261607 
1.278040 1.150020 -0.560721 
1.363980 0.919869 -0.712227 
1.376050 0.768901 -0.732691 
1.619150 1.162280 -0.954115 
1.400700 -0.258167 -0.403170 
1.166380 0.258577 -0.238425 
1.817660 -0.129538 -1.030590 
1.157020 0.623295 -0.343573 
1.404610 1.372570 -0.844730 
1.669890 1.239510 -1.008630 
1.680710 1.073810 -1.032320 
1.394320 -0.252343 -0.406896 
1.478530 1.610500 -0.580428 
1.117030 0.956367 -0.250051 
1.165740 0.432258 -0.315049 
1.375900 1.798660 -0.263449 
1.497270 2.019060 -0.780009 
1.380150 1.115250 -0.728393 
1.283900 1.705460 -0.065008 
1.164860 0.976603 -0.363051 
1.431160 1.335570 -0.891935 
1.663820 0.812961 -1.085170 
1.555750 2.087530 -0.794292 
1.399630 0.282609 -0.639604 
1.911820 1.217880 -1.157430 
1.160910 1.167590 -0.414729 
1.292780 0.802190 -0.593954 
1.660160 -0.226206 -0.780673 
1.523840 1.994050 -0.586471 
1.637320 -0.030789 -0.843610 
1.312410 0.445261 -0.590528 
1.489090 -0.096211 -0.618566 
1.397770 1.249720 -0.824590 
1.178320 0.631200 -0.361665 
1.630260 1.220630 -0.999745 
1.312010 1.824280 -0.136963 
1.160360 0.963214 -0.332536 
1.604420 0.804921 -1.038200 
1.878640 1.945090 -1.056820 
1.205620 0.916630 -0.445638 
1.435970 0.620218 -0.754586 
1.648880 0.996128 -1.036520 
1.625180 1.189410 -0.924424 
1.215120 0.478952 -0.416333 
1.671330 1.011610 -1.043480 
1.490060 0.833100 -0.900771 
1.560110 2.094730 -0.792506 
1.688210 0.943815 -1.060020 
1.509440 1.999870 -0.672806 
1.191460 1.125830 -0.404565 
1.406780 1.377350 -0.843170 
1.204670 0.914773 -0.446987 
1.390250 1.306380 -0.825650 
1.204800 0.928795 -0.413209 
1.807550 2.228740 -0.879982 
1.437320 1.890440 -0.371861 
1.818380 0.426607 -1.198880 
1.560050 0.738897 -0.974878 
1.638860 0.537035 -1.025140 
1.835650 0.428609 -1.215410 
1.644430 0.171092 -0.932315 
2.100230 -0.030557 -1.309920 
1.548120 -0.072803 -0.704774 
1.837790 -0.122785 -1.024500 
1.599310 -0.260716 -0.691905 
1.737800 2.345270 -0.958929 
1.761620 2.267170 -1.063930 
1.550600 0.425440 -0.904908 
1.420860 -0.116553 -0.475142 
1.628740 0.911338 -0.952442 
1.604740 0.872796 -1.016820 
1.604370 -0.261430 -0.690227 
1.821810 -0.207772 -0.995637 
1.400680 1.379920 -0.821145 
1.547810 -0.073308 -0.704789 
1.636000 -0.030036 -0.843578 
1.756780 2.257920 -1.063570 
1.340030 1.273830 -0.712431 
1.544260 1.865190 -0.679671 
1.162780 1.207760 -0.418424 
1.651410 0.804410 -1.088980 
1.309930 0.443993 -0.593529 
1.937210 2.132220 -1.127750 
1.272120 0.359537 -0.480850 
1.208930 0.811471 -0.461084 
1.874120 -0.441896 -0.979382 
1.202210 0.168339 -0.295143 
1.337650 0.617802 -0.659308 
1.190560 0.782380 -0.384242 
1.611650 -0.402713 -0.582667 
1.467260 1.324420 -0.956989 
1.673000 1.014490 -1.034640 
1.577900 1.306390 -1.087010 
1.625510 1.084650 -0.939052 
1.200610 0.835477 -0.423733 
1.772020 2.185170 -0.873628 
1.486700 0.828255 -0.905399 
1.616300 -0.265259 -0.680008 
1.629430 1.338590 -1.143760 
1.638290 0.164316 -0.933303 
1.277980 1.203620 -0.617455 
1.364340 -0.158916 -0.365361 
1.554560 2.084840 -0.794332 
1.289740 0.854822 -0.613261 
1.394020 0.280608 -0.643032 
1.914720 1.221780 -1.160140 
1.396250 1.315960 -0.823768 
1.336970 1.268750 -0.714063 
1.352570 0.391495 -0.636888 
1.228960 0.755756 -0.480566 
1.276660 0.481707 -0.529361 
1.799560 0.453400 -1.183890 
2.189000 -0.295463 -1.386370 
1.480060 0.296623 -0.782957 
1.669240 0.264523 -1.000240 
1.435860 0.314047 -0.737263 
1.520190 1.824170 -0.580804 
1.636430 1.094030 -0.994718 
1.284310 0.602827 -0.569366 
2.239430 -0.300802 -1.383480 
1.405060 0.608875 -0.761579 
1.629050 1.336370 -1.143140 
1.311860 0.219816 -0.500777 
1.283210 0.484885 -0.522489 
1.560280 0.739000 -0.974707 
1.448070 0.490519 -0.795624 
1.431850 -0.282989 -0.393928 
1.284300 0.603221 -0.570095 
1.855520 -0.039652 -1.107010 
1.935940 1.824480 -1.141980 
1.390040 1.237220 -0.827507 
1.546590 -0.074041 -0.704628 
1.666730 1.068260 -1.029120 
1.501270 1.293210 -0.987047 
1.480060 1.809340 -0.455780 
1.204720 0.635072 -0.418512 
1.339220 0.424169 -0.616518 
1.212140 1.198660 -0.526019 
1.200400 0.475316 -0.388989 
1.489820 -0.094940 -0.616916 
1.615250 1.022650 -0.972145 
1.284420 0.340934 -0.524226 
1.232690 0.757670 -0.478477 
1.429170 0.908864 -0.812244 
1.591220 -0.237353 -0.684275 
1.183550 1.163690 -0.477681 
1.146910 1.222320 -0.398335 
1.213630 1.042800 -0.417822 
1.233480 1.179910 -0.553385 
1.993550 -0.433713 -1.106340 
1.263820 1.283840 -0.591760 
1.275900 1.293830 -0.624302 
1.962400 -0.408071 -1.033620 
1.939080 2.045710 -1.121030 
1.807860 2.314790 -1.140440 
1.359910 1.267330 -0.756527 
1.906000 1.881620 -1.203050 
1.505240 1.797900 -0.579456 
1.826880 2.160360 -0.966001 
1.542900 1.908160 -0.733405 
1.631120 0.530948 -1.026990 
1.318400 0.446854 -0.585367 
1.403790 0.427465 -0.737950 
1.444510 1.822430 -0.380986 
2.178700 -0.283068 -1.379770 
1.788460 2.278250 -1.145990 
1.479010 0.825474 -0.906516 
1.230260 1.150350 -0.448030 
1.734510 0.713954 -1.179280 
1.302800 0.711873 -0.629498 
1.472280 0.367463 -0.792675 
1.364280 1.827070 -0.239973 
1.909760 1.225370 -1.160660 
2.161640 -0.281964 -1.379800 
1.350970 0.784884 -0.696704 
1.494950 1.281630 -0.988803 
1.421100 0.781769 -0.802781 
1.486420 1.086910 -0.905600 
1.837480 0.426421 -1.215300 
1.417460 1.697600 -0.372224 
1.564180 0.740788 -0.973977 
1.635680 0.655639 -1.049580 
1.785080 0.911669 -1.262040 
1.672570 1.068490 -1.026470 
1.295620 1.767870 -0.103279 
1.905750 -0.041057 -1.101630 
1.678200 0.493910 -1.060010 
1.287560 0.603518 -0.569180 
1.925370 1.796810 -1.191580 
1.888610 0.398151 -1.271910 
1.748140 0.169239 -1.062840 
1.495030 1.080400 -0.909176 
1.933170 2.125390 -1.139250 
1.609660 1.195580 -0.971781 
1.392350 0.532334 -0.726805 
1.393630 0.728887 -0.770814 
1.354830 1.278480 -0.743339 
1.371550 0.763806 -0.737384 
1.295280 0.330921 -0.519964 
1.339670 0.423739 -0.615305 
1.538130 1.899370 -0.736351 
1.437030 -0.135095 -0.516255 
1.439670 1.351870 -0.885293 
1.773140 2.287220 -1.060960 
1.495950 1.870370 -0.512353 
1.841140 -0.210636 -0.991820 
1.265500 0.876872 -0.557828 
1.783890 0.469828 -1.173650 
1.918850 1.180100 -1.198700 
1.762300 2.272730 -1.061610 
1.542230 -0.070897 -0.708255 
1.427270 0.866567 -0.811351 
1.906600 1.168420 -1.197130 
1.435560 1.354040 -0.894669 
1.434390 1.530600 -0.733233 
1.939370 2.138350 -1.138330 
1.517000 -0.333082 -0.495326 
1.208060 1.190010 -0.459646 
1.453470 1.156860 -0.910441 
1.920610 1.183970 -1.196480 
1.486000 1.077610 -0.905911 
1.640490 1.939730 -0.721074 
1.485390 0.296618 -0.779426 
1.723750 1.353010 -1.257430 
1.518960 1.985260 -0.589933 
2.000840 -0.367903 -1.213610 
1.435460 1.530840 -0.731883 
2.096090 -0.029795 -1.311340 
1.646210 0.810622 -1.098030 
1.814470 0.916498 -1.273530 
1.730550 0.370359 -1.101520 
1.856460 0.132770 -1.156230 
1.491380 0.205382 -0.750011 
1.606370 0.241676 -0.923850 
1.390110 0.527982 -0.728526 
1.264380 0.982014 -0.559486 
1.937660 2.161900 -1.160680 
1.408590 1.342180 -0.814815 
1.619850 1.085400 -0.944775 
1.645140 1.978180 -0.717843 
1.284050 0.869940 -0.562172 
1.377710 0.322531 -0.651376 
2.003750 0.304789 -1.344380 
1.937700 2.132480 -1.114180 
1.631840 1.920660 -0.725693 
1.934250 1.820630 -1.141220 
1.368040 1.826730 -0.239156 
1.471150 0.362343 -0.795628 
1.292470 1.210590 -0.651299 
1.653140 0.155457 -0.943641 
1.529490 1.303040 -1.034750 
1.511880 0.682332 -0.872929 
1.529160 0.754463 -0.946854 
1.627580 0.910714 -0.941454 
2.008600 -0.362082 -1.211830 
2.143060 -0.312149 -1.267200 
1.732790 1.363020 -1.255300 
1.910410 2.138200 -1.071010 
1.772950 2.275700 -1.056480 
1.827630 -0.098386 -1.036550 
1.473120 0.366095 -0.791716 
1.636250 -0.157224 -0.754065 
1.634080 -0.029985 -0.844350 
1.356580 1.282540 -0.741063 
2.001720 0.305965 -1.343820 
1.384820 0.598303 -0.733540 
1.828680 1.028640 -1.198420 
1.919630 1.792170 -1.275400 
1.473690 1.336180 -0.951445 
1.582100 1.117540 -0.903261 
1.645870 0.800927 -1.103630 
1.421580 0.567338 -0.786561 
1.915480 1.209510 -1.140420 
2.108910 0.069285 -1.357920 
1.618830 0.418606 -0.982108 
1.840800 -0.100300 -1.033740 
2.006580 -0.361638 -1.211720 
1.382560 1.740180 -0.283277 
1.428840 1.167080 -0.833453 
1.792300 2.285840 -1.145760 
1.422830 0.568055 -0.784720 
1.645340 1.187790 -1.022700 
1.218760 1.218830 -0.521657 
2.058900 -0.081998 -1.251740 
1.519310 -0.330288 -0.492620 
1.629590 1.336530 -1.142700 
1.424410 1.196480 -0.787304 
1.692400 0.062797 -0.931277 
1.764760 1.352450 -1.284450 
1.315910 1.047850 -0.610241 
2.103150 0.068012 -1.361320 
1.388490 0.989186 -0.748414 
1.685980 0.197858 -1.000060 
1.478890 1.239750 -0.970078 
1.311100 1.258660 -0.653216 
1.437610 1.185530 -0.816228 
1.922520 1.183300 -1.197530 
1.364050 1.212670 -0.765948 
1.918770 1.792570 -1.215710 
1.438890 1.808540 -0.394740 
1.623520 1.195400 -0.948750 
1.617620 0.950102 -0.908076 
1.406160 0.685441 -0.777206 
1.353080 0.627990 -0.670630 
2.108510 0.069411 -1.358750 
1.344750 0.918805 -0.687550 
1.921050 1.789990 -1.192640 
1.830730 0.916589 -1.285300 
2.084460 0.453028 -1.453120 
1.585520 0.989314 -0.901617 
1.913300 2.142090 -1.070150 
1.352630 1.188660 -0.670273 
1.839010 0.918499 -1.300810 
1.393850 1.185040 -0.740705 
1.441980 0.306901 -0.733424 
2.128090 0.186605 -1.432420 
1.394800 1.188200 -0.738557 
2.087680 0.453420 -1.453440 
1.917740 1.628750 -1.317900 
1.605820 0.471685 -0.978845 
1.483130 1.672890 -0.585692 
1.598090 0.803320 -1.041560 
1.501210 1.790130 -0.586633 
1.657240 1.092140 -1.044730 
1.378160 0.811709 -0.740822 
1.915490 1.300110 -1.346100 
1.789560 0.918022 -1.256400 
1.907510 1.178830 -1.275580 
1.407290 0.686325 -0.777489 
1.744680 2.170510 -0.844653 
1.780760 2.187000 -0.883499 
1.439110 0.834893 -0.833192 
1.633230 -0.264525 -0.652849 
1.428160 1.084140 -0.804068 
1.721340 0.874668 -1.161590 
1.841450 0.917077 -1.307460 
1.912180 1.206010 -1.140560 
1.601010 0.578381 -0.999166 
1.930550 1.158080 -1.131780 
1.992180 0.546966 -1.389290 
1.620560 0.902631 -0.951538 
1.558100 0.737555 -0.976800 
1.619980 0.906145 -0.957644 
1.932670 2.136780 -1.167510 
1.712610 0.862627 -1.169550 
2.222380 -0.280095 -1.372780 
1.572140 -0.038054 -0.669340 
1.609780 1.016640 -0.984149 
1.889020 -0.027006 -1.109200 
1.944100 1.157470 -1.406150 
1.397950 1.249700 -0.826744 
1.781770 1.330310 -1.162260 
1.403180 0.683643 -0.779605 
1.926410 1.935250 -1.245700 
1.863430 -0.218846 -0.979155 
1.300590 1.220480 -0.640639 
1.547250 -0.025972 -0.699374 
1.889070 2.304080 -0.914577 
1.425540 0.410879 -0.727727 
1.462000 1.412870 -0.895838 
1.650180 1.027780 -1.042730 
1.460890 1.410110 -0.896697 
1.697860 -0.267323 -0.787161 
1.891890 0.401099 -1.270960 
2.093050 0.450635 -1.454230 
1.494360 1.246700 -0.984082 
1.581100 1.281400 -1.083130 
1.328830 0.755051 -0.649941 
1.893600 1.062690 -1.272910 
1.780770 1.329200 -1.165850 
1.379480 1.116310 -0.728999 
1.419760 0.409780 -0.736970 
1.944770 1.104180 -1.339200 
1.928510 1.822320 -1.248780 
1.944950 1.158290 -1.405780 
1.438070 1.358390 -0.891106 
1.988950 0.544605 -1.388480 
1.563040 -0.033040 -0.680862 
1.864680 0.666580 -1.277730 
1.449880 0.489469 -0.795435 
1.886640 0.947127 -1.356910 
1.436150 1.350930 -0.891374 
1.458520 1.261460 -0.919367 
1.593630 -0.063559 -0.707926 
1.608100 0.211812 -0.912909 
1.386360 1.217670 -0.803194 
1.421550 1.197660 -0.783849 
1.491770 1.073270 -0.910962 
1.628440 0.650566 -1.052430 
1.752920 0.986681 -1.132730 
1.856230 0.661924 -1.279310 
1.651680 1.030380 -1.043040 
1.633700 -0.156261 -0.755678 
1.989000 0.547239 -1.387830 
1.916450 1.298740 -1.344070 
1.650780 1.031790 -1.043360 
1.623960 1.084640 -1.002170 
1.972070 0.807472 -1.413150 
2.013600 0.791681 -1.456960 
1.525680 1.287780 -1.047950 
1.829490 1.389500 -1.362930 
1.814140 0.150775 -1.120770 
1.622030 0.904832 -0.946637 
1.380780 1.120510 -0.721132 
1.919550 1.677450 -1.232470 
1.641270 1.330050 -1.153190 
2.215540 -0.274135 -1.372550 
1.383890 0.961255 -0.737490 
1.389350 1.221750 -0.798755 
1.673860 0.488437 -1.059920 
1.455570 0.492676 -0.791634 
1.928520 1.297920 -1.388910 
1.687330 0.186743 -0.993621 
1.609450 1.013850 -1.011200 
1.829480 1.389590 -1.362030 
1.822900 2.173750 -0.945089 
1.647750 2.026070 -0.724416 
1.725980 0.055752 -0.979858 
1.918050 1.782350 -1.322720 
1.524450 1.310300 -1.028590 
1.407480 1.671550 -0.395600 
1.603500 0.212565 -0.916204 
1.658240 0.477172 -1.058680 
1.483200 0.663346 -0.901073 
1.583170 0.642323 -1.008760 
1.382430 1.124620 -0.723267 
1.454410 0.492069 -0.792819 
1.847330 -0.206459 -0.987678 
1.683070 0.186547 -0.996837 
1.909280 1.178000 -1.274950 
1.931020 2.020260 -1.294710 
1.858720 0.131714 -1.154580 
1.922840 1.721400 -1.350510 
1.932150 -0.257485 -1.061930 
1.745570 0.978178 -1.129820 
1.886330 0.945993 -1.355800 
1.836310 1.345760 -1.089090 
1.684590 0.373691 -1.053770 
1.916660 0.129514 -1.217580 
2.187030 0.178150 -1.453190 
1.626170 0.682087 -1.054760 
2.164650 0.178596 -1.457320 
1.858600 0.131082 -1.153200 
1.404780 0.889023 -0.774909 
1.923160 1.745070 -1.288920 
1.551100 0.446952 -0.923195 
1.773170 0.194179 -1.040980 
2.153350 -0.276678 -1.339580 
1.881400 0.849997 -1.344030 
2.477250 -0.145114 -1.647820 
1.412610 1.012060 -0.778639 
1.469460 0.783277 -0.877312 
1.499360 1.783540 -0.591693 
1.887850 -0.025946 -1.110210 
1.462560 1.414530 -0.894694 
1.917050 1.301750 -1.346100 
1.884910 0.370801 -1.261320 
1.424890 0.568362 -0.783411 
1.925920 1.526830 -1.402880 
1.619440 0.911036 -0.950536 
1.399070 1.281700 -0.552981 
1.422090 0.781705 -0.802566 
1.496200 1.771400 -0.600886 
1.388900 0.989511 -0.747799 
1.656590 1.214440 -1.022330 
1.364870 1.204710 -0.774991 
1.408120 1.414670 -0.821833 
1.470260 0.784037 -0.877281 
1.577920 0.535707 -0.969418 
1.889360 0.946594 -1.354800 
1.948370 2.050870 -1.123150 
1.875400 1.943560 -1.049720 
1.657280 1.222850 -1.020450 
1.368600 1.121100 -0.702594 
1.887690 1.276440 -1.290000 
1.353250 1.275130 -0.735679 
1.877220 1.945920 -1.049760 
1.951860 1.104540 -1.405720 
1.830750 1.174400 -0.977396 
1.659750 0.476971 -1.057130 
1.446160 1.034120 -0.826467 
2.169280 0.341322 -1.507180 
1.937510 2.161310 -1.287480 
1.688680 0.366360 -1.053860 
1.895520 -0.026648 -1.103680 
2.059440 -0.255441 -1.175070 
1.359350 1.288960 -0.730968 
1.887000 0.945687 -1.354910 
1.852770 -0.215755 -0.986943 
1.967190 1.019790 -1.418760 
1.713090 1.332320 -1.233230 
1.527670 1.311510 -1.027410 
1.927770 2.268630 -1.312510 
1.467880 0.779344 -0.883309 
1.419510 1.202110 -0.781109 
1.637980 0.609908 -1.074290 
1.922380 1.782190 -1.310270 
2.150070 0.185403 -1.428700 
1.340190 1.140440 -0.830862 
1.936810 1.575930 -1.426700 
1.933470 1.891650 -1.134850 
1.462270 1.411860 -0.894595 
1.829040 0.417115 -1.219000 
1.956080 1.088980 -1.434320 
1.939300 2.161860 -1.284500 
1.591520 1.080410 -0.914334 
1.493690 0.927213 -0.914607 
1.975060 0.809478 -1.412830 
1.654690 1.209570 -1.025590 
2.305840 0.064637 -1.544430 
1.624710 0.682096 -1.055860 
1.918350 1.623230 -1.324030 
1.985460 1.768600 -1.440280 
1.444460 0.940653 -0.830045 
1.933430 2.110010 -1.155080 
1.555190 0.600788 -0.973109 
1.763010 0.678119 -1.205920 
1.789600 0.442070 -1.190140 
1.490540 0.923446 -0.918823 
2.230260 0.418177 -1.539110 
1.488990 1.083160 -0.901231 
1.711960 0.860883 -1.169690 
1.959510 1.009650 -1.428210 
1.940310 1.451600 -1.455720 
1.584000 0.454626 -0.951118 
1.781660 0.907530 -1.269580 
1.812930 0.150165 -1.119800 
1.937190 2.268510 -1.285680 
1.827620 0.416524 -1.219750 
1.952970 1.179800 -1.399480 
1.811140 0.151048 -1.121840 
2.451900 -0.021255 -1.688250 
1.607240 0.212523 -0.911305 
2.165670 0.739108 -1.565990 
2.165670 0.737003 -1.566950 
2.340980 -0.211657 -1.503280 
1.715370 1.391050 -1.242700 
1.499760 0.863001 -0.925516 
2.263140 0.490920 -1.597720 
2.353880 -0.221080 -1.501980 
1.491870 0.928094 -0.915353 
2.263370 0.491391 -1.599540 
1.897660 1.227290 -1.272500 
1.444640 1.029680 -0.828916 
1.936040 2.133140 -1.341070 
1.477870 0.367677 -0.783424 
1.830860 1.168850 -0.980897 
1.928330 1.527470 -1.399310 
1.949580 1.197130 -1.347390 
1.504380 0.874182 -0.916108 
1.942020 1.834910 -1.136300 
1.917930 0.542088 -1.328130 
1.406630 1.233470 -0.835242 
1.489010 1.208060 -0.886062 
1.622400 0.613200 -1.046570 
1.867210 0.666289 -1.277280 
1.930200 1.830400 -1.247080 
2.095120 -0.028836 -1.313990 
1.607130 0.237267 -0.927064 
1.574640 0.971106 -0.882297 
1.446420 1.233110 -0.937440 
1.911230 1.334120 -1.382720 
1.922950 1.749780 -1.350650 
1.963140 0.978828 -1.424100 
1.933850 2.258940 -1.286950 
1.636150 0.835111 -1.100210 
1.605530 0.928811 -0.934653 
1.420880 1.408250 -0.821195 
1.921820 1.682340 -1.383230 
1.952700 1.087160 -1.422420 
1.549450 1.163160 -0.860342 
1.436940 1.127650 -0.817116 
2.063260 -0.082353 -1.248770 
1.486560 1.203010 -0.890920 
1.967670 1.045720 -1.372510 
1.655200 1.209510 -1.025550 
1.928060 2.002030 -1.358410 
1.489920 1.085830 -0.898480 
1.925120 2.053540 -1.256250 
1.942300 1.454200 -1.456130 
1.654470 1.091040 -1.045150 
1.748060 0.982821 -1.140390 
1.552170 0.424203 -0.901509 
1.637430 0.538844 -1.043290 
1.861770 0.128391 -1.152660 
1.753240 0.671189 -1.197790 
2.181840 0.339644 -1.503600 
1.844460 0.651692 -1.287490 
1.553520 1.105420 -0.876499 
1.936970 1.814530 -1.148120 
2.020970 0.123723 -1.307880 
1.557600 0.608462 -0.973952 
1.587130 0.643396 -1.005040 
1.608910 0.933043 -0.930614 
1.930570 1.757960 -1.283940 
1.417630 1.396680 -0.832069 
1.421170 1.206030 -0.777358 
1.655200 1.209920 -1.025100 
1.943030 1.455040 -1.455430 
1.415020 1.234370 -0.839257 
1.824570 1.334620 -1.104610 
1.926300 1.749220 -1.287460 
2.059770 -0.254136 -1.171820 
1.822780 -0.171114 -0.966993 
1.827390 0.418645 -1.218940 
1.982470 2.005760 -1.417520 
1.930130 2.112010 -1.281590 
1.920470 1.739060 -1.218640 
1.914990 1.303510 -1.353710 
1.421530 1.206710 -0.775746 
2.164430 -0.100092 -1.350830 
1.604040 1.328010 -1.120550 
1.924720 1.589320 -1.376670 
1.881130 0.850753 -1.344740 
1.552370 0.423148 -0.903832 
1.918890 1.687370 -1.304370 
1.703980 1.380080 -1.221170 
1.538910 1.848590 -0.689498 
1.947070 0.843092 -1.396540 
1.568110 0.961974 -0.892595 
1.831300 1.391370 -1.357940 
1.698630 0.859998 -1.171910 
1.751930 1.333370 -1.273440 
2.138100 0.955606 -1.570000 
2.173060 0.181865 -1.459230 
1.468160 0.781019 -0.878560 
2.146970 0.732046 -1.531820 
1.979670 1.796440 -1.453280 
1.441820 1.367660 -0.883449 
1.711690 1.391610 -1.238190 
1.780440 0.745539 -1.224880 
1.625290 0.681586 -1.055960 
1.791830 1.335100 -1.316560 
1.556130 1.110110 -0.872157 
1.613740 1.024860 -0.968930 
1.925690 2.006150 -1.136360 
1.651440 1.007680 -1.035960 
1.568170 0.639635 -0.984527 
1.943550 1.925300 -1.395740 
1.934220 1.980230 -1.209100 
1.614990 1.183020 -0.923950 
1.939150 2.086510 -1.136120 
1.668200 0.342198 -1.024930 
1.936830 1.106200 -1.340530 
1.504510 0.758300 -0.904943 
1.758990 0.666670 -1.232890 
1.522320 0.890342 -0.904474 
1.936590 2.233620 -1.261870 
1.529500 1.319250 -1.020600 
1.552960 0.424433 -0.902353 
1.488350 1.355750 -0.963058 
1.933790 1.015670 -1.343900 
2.138610 0.955993 -1.569510 
1.778310 0.908658 -1.260730 
1.549650 1.162600 -0.859864 
1.929160 1.824530 -1.249370 
1.937320 2.196080 -1.271080 
1.986840 2.016680 -1.415600 
1.929140 1.756340 -1.285640 
1.887410 1.284340 -1.291930 
1.628270 0.529419 -1.031800 
1.931700 2.028050 -1.286750 
1.608090 1.201670 -0.967019 
2.003660 0.808036 -1.435020 
2.134370 0.949768 -1.574210 
1.897830 0.274148 -1.243510 
2.015260 1.377510 -1.488190 
2.042190 0.525334 -1.434010 
1.499910 0.863817 -0.921353 
1.829000 1.390830 -1.357780 
1.918750 1.677520 -1.385360 
1.889690 -0.025795 -1.108960 
1.642990 1.333450 -1.151830 
1.717490 0.867034 -1.165540 
1.579550 0.982216 -0.903290 
1.981470 1.760700 -1.443690 
1.602600 1.796630 -0.722862 
1.553220 0.882532 -0.873968 
1.988730 1.178350 -1.483300 
1.734340 0.445200 -1.137470 
1.562070 1.294670 -1.048410 
2.014030 1.376970 -1.488140 
2.154590 0.940375 -1.579380 
1.931320 2.023750 -1.294620 
1.551270 0.878738 -0.878447 
1.941070 1.167220 -1.405550 
2.007750 1.201210 -1.476820 
2.167590 0.737853 -1.565810 
1.946950 2.022530 -1.374620 
2.248550 0.532344 -1.577910 
2.106920 1.092170 -1.561670 
1.419410 1.399560 -0.830159 
1.693410 0.183106 -0.984140 
1.790820 0.441934 -1.187950 
1.712270 1.397940 -1.233090 
1.940050 1.374350 -1.461200 
1.866980 1.413310 -1.394400 
1.931310 1.881490 -1.251870 
1.591990 1.081290 -0.914272 
1.624860 0.891589 -1.024650 
2.040850 0.520239 -1.435530 
1.885680 0.396478 -1.280280 
1.625430 0.604859 -1.053420 
1.940870 1.167580 -1.405960 
1.965140 0.797293 -1.417680 
1.844140 0.650652 -1.287910 
1.963410 0.800161 -1.425030 
2.340740 -0.002568 -1.483350 
1.982330 1.544280 -1.477010 
1.939750 1.904860 -1.206570 
1.895420 0.860684 -1.338950 
1.913290 1.331400 -1.384910 
1.926070 1.293570 -1.327930 
1.560200 1.281740 -1.049900 
1.938220 2.156020 -1.160170 
1.919420 1.629270 -1.318840 
2.114000 1.098270 -1.557660 
1.924050 1.414410 -1.444050 
1.927880 1.752600 -1.285420 
2.319700 0.485507 -1.630650 
1.741410 0.774447 -1.210920 
2.562270 0.240328 -1.692530 
1.876510 0.530378 -1.293670 
1.921030 1.578270 -1.364670 
1.668780 0.784761 -1.122240 
1.941030 1.379110 -1.458420 
1.708130 0.878907 -1.173230 
1.556220 1.033330 -0.868075 
1.939350 2.045770 -1.280700 
2.049380 0.087735 -1.299010 
1.650210 0.464288 -1.038480 
2.102320 0.579385 -1.478270 
1.871430 -0.207242 -0.959372 
2.088600 0.450214 -1.453470 
1.923910 1.750170 -1.349280 
2.035610 0.121671 -1.298900 
1.702160 1.377030 -1.222540 
1.880210 -0.216309 -0.949354 
1.940870 1.377170 -1.459810 
1.986870 2.140980 -1.388440 
1.892330 0.520403 -1.307230 
1.486100 1.202340 -0.891297 
1.907750 1.219080 -1.169860 
1.960380 1.016260 -1.420300 
1.591170 1.079910 -0.914685 
1.939600 1.107660 -1.339530 
1.921900 1.202930 -1.102330 
1.501890 1.259110 -0.975631 
2.255290 0.488190 -1.600480 
1.684240 0.647907 -1.120710 
1.656390 1.140270 -1.028840 
1.939890 2.137010 -1.194120 
2.260530 0.592615 -1.600290 
1.587970 0.686760 -1.020210 
1.912070 1.334120 -1.382870 
1.980290 1.760090 -1.446340 
2.626490 -0.073751 -1.734340 
2.075550 -0.098189 -1.255820 
1.654920 1.125890 -1.032290 
2.017270 1.385380 -1.484150 
1.783940 0.557753 -1.220380 
1.920820 1.147550 -1.215160 
1.978770 1.757610 -1.446600 
1.655830 1.308860 -1.140020 
2.005660 1.406780 -1.492210 
1.978390 1.635750 -1.463350 
1.951180 1.621030 -1.444060 
1.977810 2.120890 -1.393630 
1.578550 1.346250 -1.065400 
1.574530 1.152350 -0.881506 
2.028570 1.224570 -1.498040 
1.648090 0.800212 -1.093480 
2.141030 0.709229 -1.542890 
1.980140 1.912520 -1.423970 
1.603220 1.818470 -0.728368 
1.683550 0.647974 -1.119860 
1.558160 1.179320 -0.824886 
1.540150 1.322190 -1.024950 
2.269850 0.590519 -1.593730 
2.026710 0.122840 -1.305700 
1.959670 0.022572 -1.158240 
1.908450 -0.035118 -1.088250 
1.924060 1.750140 -1.350400 
1.765540 1.358680 -1.283870 
1.987520 1.182490 -1.473170 
2.008380 -0.157647 -1.119460 
1.611130 1.016100 -0.996084 
2.564230 0.242159 -1.692110 
1.579990 1.318130 -1.076970 
1.582210 1.285450 -1.079420 
1.873160 0.786025 -1.332830 
1.764750 0.448810 -1.179610 
1.703580 1.379980 -1.215390 
1.602830 1.327930 -1.119560 
2.460520 0.657033 -1.696560 
1.457180 1.259990 -0.911985 
2.198820 -0.042539 -1.373480 
1.583420 0.641547 -1.008400 
2.397480 0.644955 -1.700810 
1.926090 1.748300 -1.288770 
1.630500 0.895894 -1.023280 
1.980660 1.996790 -1.420800 
1.788200 0.441756 -1.191740 
1.738440 0.416932 -1.124040 
1.589800 1.293160 -1.089900 
1.921470 0.701699 -1.368890 
1.655520 1.148330 -1.024800 
2.064700 1.947760 -1.455150 
1.922440 1.580320 -1.363100 
1.747000 0.980956 -1.143290 
1.623490 0.811856 -1.035990 
1.577310 1.347450 -1.066500 
2.065370 0.388289 -1.412440 
1.679930 0.985322 -1.057040 
1.946520 1.385680 -1.463210 
1.992760 0.581291 -1.397430 
1.683640 0.647529 -1.120950 
1.931510 2.008300 -1.352990 
2.233770 0.185032 -1.465680 
1.571350 1.262360 -0.946222 
1.945840 1.928610 -1.393220 
1.786800 1.335070 -1.326880 
2.104100 1.084850 -1.570020 
1.604480 1.807670 -0.714706 
2.040400 0.521143 -1.434400 
1.927060 1.568000 -1.413750 
1.893170 1.250710 -1.269080 
1.688860 0.942258 -1.080800 
1.557520 1.112810 -0.869268 
1.935810 1.446070 -1.457600 
2.009160 0.789300 -1.460820 
1.650670 0.464206 -1.037620 
2.388020 0.643160 -1.702680 
1.650700 1.017790 -1.036280 
2.080000 -0.086614 -1.228670 
2.098960 0.575752 -1.479860 
1.905410 1.201170 -1.229970 
1.840620 0.754242 -1.302240 
1.579430 1.765440 -0.689092 
1.929500 1.758130 -1.212350 
1.821130 0.900901 -1.298740 
1.934270 1.692970 -1.259910 
2.338740 0.488285 -1.627180 
2.264540 1.206950 -1.676020 
1.933440 0.775845 -1.390680 
1.560480 1.283830 -1.056020 
2.461550 0.088204 -1.590980 
2.585960 -0.139839 -1.611960 
1.923110 1.749780 -1.350750 
1.939550 2.151380 -1.231910 
1.657170 1.149340 -1.022600 
2.282810 0.489048 -1.594850 
1.671230 1.377860 -1.179880 
2.325570 0.911847 -1.683290 
2.135850 0.706991 -1.540920 
1.605850 1.169540 -0.932068 
1.720330 1.339180 -1.241170 
1.741700 0.418299 -1.117080 
1.606450 0.893950 -0.978058 
2.574950 0.424949 -1.778590 
1.651960 1.318050 -1.153450 
2.313300 0.903589 -1.685810 
1.957190 1.098930 -1.414220 
2.035510 0.196406 -1.327770 
1.617090 1.022860 -0.998181 
1.647060 1.298150 -1.056560 
2.191430 1.357530 -1.624800 
1.927430 1.595120 -1.394600 
1.939770 2.157840 -1.193060 
1.772110 0.829698 -1.245240 
2.266230 1.208560 -1.675900 
1.606560 1.340880 -1.107150 
1.573220 1.271050 -0.935363 
2.132800 0.208986 -1.405300 
2.496060 0.770516 -1.777660 
1.770300 0.825469 -1.250970 
1.932400 0.775795 -1.392110 
2.027100 1.224710 -1.498710 
2.441200 0.710350 -1.736190 
2.164920 0.735789 -1.567890 
1.872650 0.787028 -1.331770 
2.673000 -0.068928 -1.722090 
1.929110 1.270770 -1.406240 
1.937210 1.156360 -1.414830 
1.823740 0.905382 -1.292770 
2.003520 1.401790 -1.501320 
1.908050 1.228390 -1.162710 
2.897110 -0.013959 -1.849490 
1.657210 1.310540 -1.138100 
1.814050 1.018940 -1.210750 
1.651050 1.320300 -1.156650 
2.065200 1.943990 -1.459370 
2.320700 0.910006 -1.681480 
1.861010 1.371760 -1.366770 
1.817540 1.022920 -1.207580 
1.799170 0.741634 -1.260460 
1.612650 1.098020 -0.981745 
2.163060 0.733065 -1.568690 
2.041830 0.526529 -1.434970 
1.992760 2.027380 -1.410220 
2.010060 0.789253 -1.460130 
1.675030 0.924062 -1.073130 
1.942260 1.105140 -1.342660 
1.884810 1.286890 -1.298030 
1.925380 1.414650 -1.444930 
1.933970 1.200880 -1.395050 
1.925700 1.645230 -1.377410 
1.992220 2.154820 -1.382060 
2.154850 -0.082890 -1.296550 
2.120330 0.068277 -1.345950 
1.764800 1.361540 -1.284320 
1.721320 1.345040 -1.236040 
1.934350 1.893330 -1.211160 
1.689410 0.840026 -1.154990 
1.943380 0.804116 -1.405880 
1.721390 0.876044 -1.204150 
1.940750 2.135290 -1.107010 
1.759770 0.899878 -1.235100 
2.607740 0.399444 -1.767010 
1.778920 1.337250 -1.299110 
2.020950 0.984811 -1.483410 
2.491940 0.770543 -1.778500 
1.850050 0.653873 -1.295250 
1.809700 1.014710 -1.212870 
1.765200 1.362760 -1.283150 
2.468300 0.400335 -1.685580 
1.754530 0.891336 -1.246380 
1.649200 1.003900 -1.044460 
1.748800 1.318610 -1.157060 
2.260440 1.202460 -1.677890 
1.925110 0.820711 -1.393900 
2.867220 -0.010904 -1.852320 
1.750430 0.666886 -1.200240 
1.793940 0.993842 -1.183340 
1.926410 1.349480 -1.419730 
1.811550 1.016930 -1.209090 
1.791980 0.990971 -1.185720 
1.959980 1.010220 -1.446350 
2.519500 0.457758 -1.728950 
1.953320 1.873950 -1.392790 
1.625060 1.225950 -0.999743 
2.033710 0.081283 -1.265860 
1.778710 0.380413 -1.158490 
2.136480 0.206166 -1.399030 
1.780230 0.910388 -1.256620 
1.690810 0.846587 -1.162630 
2.001370 -0.010174 -1.189880 
2.286390 1.026070 -1.683440 
2.884840 -0.009112 -1.839860 
1.930750 0.773268 -1.395650 
1.792870 1.390720 -1.324750 
2.307710 0.080594 -1.487600 
2.401820 0.767547 -1.719840 
1.614040 1.327660 -1.131650 
1.954010 1.037910 -1.335170 
1.890220 0.341470 -1.251600 
1.952400 1.146980 -1.356110 
1.993000 0.458974 -1.372940 
2.096690 0.445908 -1.449460 
1.769640 0.825248 -1.251550 
2.133220 1.256610 -1.583910 
2.282820 1.290760 -1.691800 
1.831870 1.352000 -1.087870 
2.312410 0.903728 -1.684090 
1.779970 0.647992 -1.237440 
2.094480 0.570435 -1.483450 
2.835490 0.009083 -1.850930 
1.925830 1.350750 -1.419670 
1.711610 1.346260 -1.230940 
2.660020 0.470963 -1.811610 
2.863820 0.004845 -1.847310 
1.578900 1.764650 -0.686644 
2.336470 0.250164 -1.558790 
1.885510 1.288080 -1.296610 
2.007690 0.298407 -1.337410 
2.267210 0.597117 -1.597600 
2.019730 0.983910 -1.484490 
1.825710 1.337860 -1.102930 
1.967670 0.981431 -1.423180 
1.969250 1.234960 -1.460240 
1.831230 1.393650 -1.361660 
1.953800 1.874110 -1.392400 
1.852730 1.409960 -1.379590 
1.958730 1.043690 -1.329050 
2.075130 -0.080938 -1.235830 
1.826180 1.333780 -1.105720 
1.813990 0.416073 -1.199590 
1.942610 0.803203 -1.407720 
1.779340 0.719293 -1.237760 
1.878370 0.529624 -1.289520 
2.235280 0.789073 -1.618740 
2.559000 0.396482 -1.779060 
2.468060 0.623604 -1.752830 
2.335220 0.250928 -1.559690 
1.932110 1.829050 -1.247640 
1.953370 1.561150 -1.448810 
1.924310 1.353970 -1.418100 
2.135860 0.206701 -1.400410 
1.872000 0.786623 -1.337380 
2.197880 -0.037500 -1.371210 
2.182440 1.072280 -1.617780 
2.658340 0.471074 -1.808360 
1.909610 0.352054 -1.279380 
2.364590 -0.045472 -1.480020 
1.889060 0.394263 -1.273910 
1.910220 0.351170 -1.278530 
1.918430 1.043950 -1.327630 
2.339500 0.509176 -1.614920 
1.828700 1.387580 -1.363390 
1.779840 0.718777 -1.239770 
1.801100 0.741400 -1.256500 
1.947350 1.070490 -1.342020 
2.452550 0.473504 -1.690170 
1.997330 1.394850 -1.505280 
1.747410 0.981922 -1.143340 
1.749210 1.386580 -1.268860 
1.692660 1.373900 -1.199090 
1.638590 1.380760 -1.108120 
2.120920 0.068325 -1.343830 
1.887130 1.231690 -1.290030 
2.182770 1.260950 -1.622440 
2.168340 1.722190 -1.595620 
2.300260 1.027090 -1.697170 
1.693620 1.334550 -1.189980 
1.968070 1.343870 -1.452150 
1.822490 0.886474 -1.298440 
2.268480 0.834828 -1.647050 
1.788150 0.859961 -1.271970 
1.825390 1.348370 -1.357430 
1.632000 1.362160 -1.127000 
1.775420 0.905084 -1.264030 
1.921610 0.700353 -1.370640 
2.497390 0.768998 -1.778410 
2.521970 0.487023 -1.741050 
1.923920 1.291160 -1.332570 
2.610350 0.401509 -1.765630 
1.647480 1.308180 -1.158670 
2.884610 0.013254 -1.860990 
2.273140 0.671668 -1.633210 
1.911790 1.296560 -1.351990 
1.956310 1.952210 -1.377060 
1.947820 1.142020 -1.360570 
1.813000 1.021700 -1.205970 
2.252910 0.529984 -1.576770 
1.953790 1.037720 -1.336900 
1.925680 1.752020 -1.347650 
2.285250 1.292310 -1.691130 
2.333230 1.511820 -1.735400 
2.132480 1.048680 -1.589310 
2.027700 1.289180 -1.504750 
2.039550 0.194596 -1.321140 
2.463950 0.088696 -1.587750 
2.255750 0.528681 -1.574740 
2.189520 0.649010 -1.563090 
1.931680 1.966120 -1.216230 
1.958720 1.650990 -1.444000 
1.823490 0.887225 -1.296720 
2.357800 1.113860 -1.742860 
1.829960 0.831012 -1.302080 
2.000440 1.397470 -1.501890 
1.923920 1.288770 -1.333580 
1.824560 1.167780 -0.996902 
1.823070 0.903283 -1.293920 
2.248540 1.710720 -1.675090 
1.637490 1.363230 -1.121100 
1.951000 1.002820 -1.435230 
1.988510 1.812940 -1.438100 
2.254700 0.527453 -1.576560 
2.212060 2.006430 -1.606710 
2.560650 0.526338 -1.764970 
2.464290 0.907540 -1.761200 
2.190320 0.649286 -1.547820 
1.866640 1.414980 -1.392870 
1.811190 1.017360 -1.210240 
2.190160 1.355050 -1.627020 
2.023800 1.219850 -1.504920 
1.856050 1.351070 -1.226750 
1.883240 1.274460 -1.285580 
2.332970 0.795439 -1.687170 
1.909760 1.194730 -1.127040 
1.850030 0.888685 -1.329800 
2.333840 1.512040 -1.735040 
2.183300 1.745670 -1.586980 
1.950310 1.861440 -1.392920 
1.928940 1.272190 -1.405650 
1.723830 1.345010 -1.235350 
1.965430 1.544990 -1.459360 
2.062320 1.942040 -1.456560 
2.457130 1.287300 -1.796490 
2.027260 1.289250 -1.505400 
1.930820 1.282970 -1.344700 
1.756040 1.349180 -1.257610 
2.197550 0.170419 -1.438160 
2.287720 1.550470 -1.699110 
1.996330 0.458181 -1.368920 
2.287490 0.722573 -1.652080 
2.021590 1.217270 -1.508510 
2.156660 1.684680 -1.564560 
1.884630 0.945244 -1.362310 
2.197050 0.172149 -1.439580 
1.765090 1.359060 -1.284850 
2.082100 -0.085315 -1.221810 
2.248560 0.526780 -1.582320 
1.955000 0.848549 -1.422150 
2.251070 2.033340 -1.626140 
2.168910 1.443530 -1.610120 
1.903120 1.252230 -1.308850 
1.891180 0.601624 -1.322680 
2.275990 1.668890 -1.685560 
2.120340 -0.034185 -1.281620 
2.301600 1.501050 -1.706680 
2.324610 1.058900 -1.714630 
1.779310 1.335610 -1.300610 
2.324030 0.076426 -1.473050 
1.890910 0.420091 -1.280000 
1.967000 1.749160 -1.429960 
1.900550 1.214900 -1.193220 
1.867170 0.768117 -1.323760 
2.009990 1.071010 -1.492820 
1.973650 1.289320 -1.460700 
1.864880 1.893180 -1.091590 
2.226840 2.049250 -1.602020 
2.014360 0.934251 -1.485710 
2.213560 -0.040204 -1.350690 
2.235520 1.476150 -1.656210 
2.135730 1.052180 -1.585630 
1.829750 0.833417 -1.301310 
2.274500 1.667050 -1.686900 
2.333930 1.515770 -1.733090 
1.825210 1.345440 -1.097850 
2.278630 2.036860 -1.660880 
1.988420 0.564509 -1.393250 
2.493830 0.766685 -1.778210 
2.287940 1.026110 -1.683810 
2.332100 1.512250 -1.733700 
2.268470 1.746630 -1.664630 
1.924340 1.413980 -1.445450 
2.038710 0.521378 -1.443140 
2.068000 1.800600 -1.485150 
1.923580 1.353790 -1.418930 
2.224270 2.040720 -1.605770 
2.251400 2.039950 -1.622620 
2.285270 2.047690 -1.655650 
