0.988244 1.067290 -0.020189 0.000000 0.000000 0.000000 
1.249370 -0.074196 -0.319669 0.000000 0.000000 0.000000 
0.968426 1.094300 -0.083278 0.000000 0.000000 0.000000 
1.361790 1.008830 -0.618678 0.000000 0.000000 0.000000 
1.432790 1.625750 -0.675136 0.000000 0.000000 0.000000 
1.106490 0.493303 -0.275405 0.000000 0.000000 0.000000 
1.108270 0.493571 -0.274308 0.000000 0.000000 0.000000 
1.440550 1.564690 -0.586593 0.000000 0.000000 0.000000 
1.377030 0.554338 -0.725652 0.000000 0.000000 0.000000 
1.472010 2.058460 -0.462602 0.000000 0.000000 0.000000 
1.046780 0.271274 -0.099952 0.000000 0.000000 0.000000 
0.970416 0.873872 0.008594 0.000000 0.000000 0.000000 
0.942237 0.823899 0.057999 0.000000 0.000000 0.000000 
1.292040 -0.101971 -0.359323 0.000000 0.000000 0.000000 
1.400660 0.933321 -0.553183 0.000000 0.000000 0.000000 
1.235850 0.787133 -0.411861 0.000000 0.000000 0.000000 
1.378680 0.864204 -0.750499 0.000000 0.000000 0.000000 
1.154130 -0.015256 -0.166748 0.000000 0.000000 0.000000 
1.625690 -0.245072 -0.836751 0.000000 0.000000 0.000000 
1.390000 0.871306 -0.752132 0.000000 0.000000 0.000000 
1.519010 -0.097126 -0.705292 0.000000 0.000000 0.000000 
1.091540 0.027424 -0.072339 0.000000 0.000000 0.000000 
1.391480 0.291249 -0.672723 0.000000 0.000000 0.000000 
1.770530 -0.487070 -0.955352 0.000000 0.000000 0.000000 
1.230270 -0.203353 -0.203514 0.000000 0.000000 0.000000 
1.154440 0.850233 -0.311145 0.000000 0.000000 0.000000 
1.114440 0.625493 -0.317022 0.000000 0.000000 0.000000 
1.135840 0.999565 -0.202086 0.000000 0.000000 0.000000 
1.427180 1.486340 -0.639386 0.000000 0.000000 0.000000 
1.173260 1.035950 -0.314917 0.000000 0.000000 0.000000 
1.166070 0.946975 -0.313094 0.000000 0.000000 0.000000 
1.067280 0.462413 -0.184119 0.000000 0.000000 0.000000 
0.976925 0.723646 -0.005692 0.000000 0.000000 0.000000 
1.316080 0.712528 -0.665789 0.000000 0.000000 0.000000 
1.300000 -0.440480 -0.147239 0.000000 0.000000 0.000000 
1.369040 1.077860 -0.707641 0.000000 0.000000 0.000000 
1.136760 -0.335425 0.125705 0.000000 0.000000 0.000000 
1.092430 1.173860 -0.354896 0.000000 0.000000 0.000000 
1.066490 0.381455 -0.217139 0.000000 0.000000 0.000000 
1.098320 0.065470 -0.113999 0.000000 0.000000 0.000000 
1.410050 0.534202 -0.776213 0.000000 0.000000 0.000000 
1.188370 1.193390 -0.564275 0.000000 0.000000 0.000000 
1.449390 -0.347789 -0.476495 0.000000 0.000000 0.000000 
1.452960 1.681080 -0.622714 0.000000 0.000000 0.000000 
1.168530 -0.410401 0.107911 0.000000 0.000000 0.000000 
1.349820 1.066860 -0.644295 0.000000 0.000000 0.000000 
1.148130 0.172282 -0.250270 0.000000 0.000000 0.000000 
1.380850 0.998027 -0.294380 0.000000 0.000000 0.000000 
1.019100 1.275540 -0.166240 0.000000 0.000000 0.000000 
1.060100 1.140040 -0.330233 0.000000 0.000000 0.000000 
1.452850 2.092580 -0.791802 0.000000 0.000000 0.000000 
0.991723 0.408781 -0.011512 0.000000 0.000000 0.000000 
1.092150 0.027396 -0.073212 0.000000 0.000000 0.000000 
0.928080 0.872237 0.180340 0.000000 0.000000 0.000000 
1.084760 0.283221 -0.172635 0.000000 0.000000 0.000000 
1.440660 1.837800 -0.742064 0.000000 0.000000 0.000000 
0.982595 0.338643 0.050111 0.000000 0.000000 0.000000 
0.991602 1.075240 -0.015873 0.000000 0.000000 0.000000 
0.912545 1.151170 0.129903 0.000000 0.000000 0.000000 
0.991658 1.102010 -0.174135 0.000000 0.000000 0.000000 
1.373760 0.762464 -0.760949 0.000000 0.000000 0.000000 
1.146180 0.162943 -0.252546 0.000000 0.000000 0.000000 
0.899634 1.109810 0.144594 0.000000 0.000000 0.000000 
0.971791 0.086173 0.163163 0.000000 0.000000 0.000000 
1.052860 0.249950 -0.076373 0.000000 0.000000 0.000000 
1.356940 1.105360 -0.746979 0.000000 0.000000 0.000000 
1.453460 1.685970 -0.621972 0.000000 0.000000 0.000000 
1.107440 0.340012 -0.232607 0.000000 0.000000 0.000000 
1.425740 1.613860 -0.674797 0.000000 0.000000 0.000000 
1.382410 1.038340 -0.621820 0.000000 0.000000 0.000000 
1.065390 0.565963 -0.187883 0.000000 0.000000 0.000000 
1.367500 1.079420 -0.710790 0.000000 0.000000 0.000000 
0.996201 0.627954 -0.072196 0.000000 0.000000 0.000000 
1.039210 0.923474 -0.157557 0.000000 0.000000 0.000000 
1.045520 1.150110 -0.302049 0.000000 0.000000 0.000000 
1.315650 0.710744 -0.666343 0.000000 0.000000 0.000000 
1.363120 1.075540 -0.715174 0.000000 0.000000 0.000000 
1.277030 0.688694 -0.604805 0.000000 0.000000 0.000000 
1.067770 0.462449 -0.183016 0.000000 0.000000 0.000000 
1.141230 0.912682 -0.268870 0.000000 0.000000 0.000000 
1.277530 1.865640 -0.096760 0.000000 0.000000 0.000000 
1.454970 2.073410 -0.768769 0.000000 0.000000 0.000000 
1.400060 1.538310 -0.766565 0.000000 0.000000 0.000000 
1.282210 1.914920 -0.108292 0.000000 0.000000 0.000000 
1.054210 1.141330 -0.314103 0.000000 0.000000 0.000000 
1.350200 1.014380 -0.631989 0.000000 0.000000 0.000000 
1.473510 2.172140 -0.646157 0.000000 0.000000 0.000000 
1.374890 0.763341 -0.761672 0.000000 0.000000 0.000000 
1.002100 0.898865 -0.043558 0.000000 0.000000 0.000000 
1.106450 0.493581 -0.274440 0.000000 0.000000 0.000000 
1.095620 0.744233 -0.119825 0.000000 0.000000 0.000000 
0.991546 1.099590 -0.179479 0.000000 0.000000 0.000000 
1.142460 0.738751 -0.190580 0.000000 0.000000 0.000000 
1.320260 -0.262411 -0.301744 0.000000 0.000000 0.000000 
1.440940 1.540510 -0.873555 0.000000 0.000000 0.000000 
1.447090 1.924860 -0.742985 0.000000 0.000000 0.000000 
1.258350 0.188582 -0.452860 0.000000 0.000000 0.000000 
1.551350 -0.113075 -0.738986 0.000000 0.000000 0.000000 
1.131390 0.925382 -0.169899 0.000000 0.000000 0.000000 
1.026180 0.779050 -0.127197 0.000000 0.000000 0.000000 
1.094100 0.911667 -0.104853 0.000000 0.000000 0.000000 
1.228840 0.470559 -0.452415 0.000000 0.000000 0.000000 
1.098860 0.747325 -0.117387 0.000000 0.000000 0.000000 
1.368140 0.913407 -0.753962 0.000000 0.000000 0.000000 
1.041010 1.066540 -0.134529 0.000000 0.000000 0.000000 
1.140580 0.736496 -0.191784 0.000000 0.000000 0.000000 
1.256480 0.186849 -0.453630 0.000000 0.000000 0.000000 
1.052310 0.424648 -0.165013 0.000000 0.000000 0.000000 
1.511180 -0.071006 -0.681898 0.000000 0.000000 0.000000 
1.382570 1.226780 -0.841936 0.000000 0.000000 0.000000 
1.384750 1.368930 -0.773936 0.000000 0.000000 0.000000 
1.128890 0.922134 -0.171627 0.000000 0.000000 0.000000 
1.452180 1.969010 -0.758201 0.000000 0.000000 0.000000 
1.048790 1.151080 -0.300875 0.000000 0.000000 0.000000 
1.455860 1.789320 -0.656347 0.000000 0.000000 0.000000 
1.022120 0.705063 -0.132364 0.000000 0.000000 0.000000 
1.174780 1.038940 -0.313871 0.000000 0.000000 0.000000 
1.223370 0.161780 -0.374594 0.000000 0.000000 0.000000 
1.434870 1.776860 -0.481037 0.000000 0.000000 0.000000 
1.538170 0.453672 -0.915382 0.000000 0.000000 0.000000 
1.242930 0.190471 -0.433672 0.000000 0.000000 0.000000 
1.271430 0.419432 -0.552671 0.000000 0.000000 0.000000 
1.499560 -0.069569 -0.684402 0.000000 0.000000 0.000000 
0.971874 1.015510 0.073801 0.000000 0.000000 0.000000 
1.189800 1.136360 -0.550346 0.000000 0.000000 0.000000 
1.682870 -0.535052 -0.774668 0.000000 0.000000 0.000000 
1.831890 -0.378762 -1.022790 0.000000 0.000000 0.000000 
1.630720 0.186666 -0.941507 0.000000 0.000000 0.000000 
1.429600 1.490210 -0.639864 0.000000 0.000000 0.000000 
1.258740 0.187517 -0.452564 0.000000 0.000000 0.000000 
1.860120 -0.391002 -1.031820 0.000000 0.000000 0.000000 
1.178120 0.658845 -0.428567 0.000000 0.000000 0.000000 
1.133420 0.851913 -0.228628 0.000000 0.000000 0.000000 
1.026540 0.710334 -0.133712 0.000000 0.000000 0.000000 
1.348000 1.057550 -0.642242 0.000000 0.000000 0.000000 
1.128290 0.730859 -0.207903 0.000000 0.000000 0.000000 
1.469000 1.709470 -0.569783 0.000000 0.000000 0.000000 
1.378620 1.299710 -0.790263 0.000000 0.000000 0.000000 
1.001490 0.999512 -0.042875 0.000000 0.000000 0.000000 
1.206270 0.458456 -0.455193 0.000000 0.000000 0.000000 
1.037370 0.725697 -0.122012 0.000000 0.000000 0.000000 
1.003260 0.519438 -0.059206 0.000000 0.000000 0.000000 
1.118340 0.048936 -0.066209 0.000000 0.000000 0.000000 
1.238570 1.121720 -0.636113 0.000000 0.000000 0.000000 
1.543530 -0.387455 -0.596610 0.000000 0.000000 0.000000 
1.372910 1.069310 -0.751728 0.000000 0.000000 0.000000 
1.282960 1.917380 -0.107307 0.000000 0.000000 0.000000 
1.304710 -0.431170 -0.145335 0.000000 0.000000 0.000000 
1.433360 1.567690 -0.888618 0.000000 0.000000 0.000000 
1.471830 1.950270 -0.662218 0.000000 0.000000 0.000000 
1.474580 1.929210 -0.615844 0.000000 0.000000 0.000000 
1.209860 -0.292261 -0.055478 0.000000 0.000000 0.000000 
1.360980 0.993415 -0.301739 0.000000 0.000000 0.000000 
0.976374 0.443204 0.022701 0.000000 0.000000 0.000000 
1.457450 -0.513656 -0.378634 0.000000 0.000000 0.000000 
1.473430 -0.364612 -0.480947 0.000000 0.000000 0.000000 
1.394030 0.964523 -0.703391 0.000000 0.000000 0.000000 
1.166840 0.660313 -0.438264 0.000000 0.000000 0.000000 
1.392970 0.801509 -0.713804 0.000000 0.000000 0.000000 
1.375360 0.933460 -0.754041 0.000000 0.000000 0.000000 
1.374100 1.217220 -0.840093 0.000000 0.000000 0.000000 
1.371050 1.212680 -0.841271 0.000000 0.000000 0.000000 
1.055800 0.558716 -0.193844 0.000000 0.000000 0.000000 
1.042090 1.069380 -0.134899 0.000000 0.000000 0.000000 
1.187740 -0.212050 -0.081067 0.000000 0.000000 0.000000 
1.148160 0.638012 -0.441833 0.000000 0.000000 0.000000 
1.184790 1.181460 -0.543439 0.000000 0.000000 0.000000 
1.374500 0.931639 -0.755694 0.000000 0.000000 0.000000 
1.370540 1.061690 -0.745644 0.000000 0.000000 0.000000 
1.065000 0.463266 -0.182576 0.000000 0.000000 0.000000 
1.429500 1.578740 -0.578400 0.000000 0.000000 0.000000 
1.297390 0.129460 -0.504795 0.000000 0.000000 0.000000 
1.022510 1.280910 -0.163751 0.000000 0.000000 0.000000 
1.141320 0.633351 -0.446055 0.000000 0.000000 0.000000 
0.954790 0.991434 0.057532 0.000000 0.000000 0.000000 
1.457470 1.892260 -0.707465 0.000000 0.000000 0.000000 
1.468540 1.603080 -0.587857 0.000000 0.000000 0.000000 
1.060670 0.563641 -0.186850 0.000000 0.000000 0.000000 
1.109240 0.809284 -0.127085 0.000000 0.000000 0.000000 
1.454910 1.789140 -0.881654 0.000000 0.000000 0.000000 
1.456760 1.728880 -0.630220 0.000000 0.000000 0.000000 
1.448940 1.886930 -0.872227 0.000000 0.000000 0.000000 
1.042940 1.069580 -0.133511 0.000000 0.000000 0.000000 
1.367630 1.136290 -0.836250 0.000000 0.000000 0.000000 
1.233440 0.580106 -0.511937 0.000000 0.000000 0.000000 
1.469910 1.711000 -0.570587 0.000000 0.000000 0.000000 
1.221540 0.160183 -0.376581 0.000000 0.000000 0.000000 
1.374560 0.957330 -0.744386 0.000000 0.000000 0.000000 
1.656740 0.173163 -0.984741 0.000000 0.000000 0.000000 
1.173290 1.037600 -0.315537 0.000000 0.000000 0.000000 
1.229110 0.785322 -0.422515 0.000000 0.000000 0.000000 
1.501260 0.424337 -0.880433 0.000000 0.000000 0.000000 
1.228030 0.783599 -0.423097 0.000000 0.000000 0.000000 
1.406970 0.623008 -0.716358 0.000000 0.000000 0.000000 
1.401500 1.479100 -0.712938 0.000000 0.000000 0.000000 
1.292110 -0.104373 -0.357444 0.000000 0.000000 0.000000 
1.088820 1.109080 -0.365196 0.000000 0.000000 0.000000 
0.995209 1.280530 -0.082869 0.000000 0.000000 0.000000 
1.280350 1.169930 -0.709766 0.000000 0.000000 0.000000 
1.173310 0.792356 -0.331285 0.000000 0.000000 0.000000 
1.481540 1.973870 -0.632958 0.000000 0.000000 0.000000 
1.054660 0.249230 -0.076046 0.000000 0.000000 0.000000 
1.367590 1.137500 -0.836482 0.000000 0.000000 0.000000 
1.436800 1.558210 -0.630499 0.000000 0.000000 0.000000 
1.415410 1.541460 -0.704421 0.000000 0.000000 0.000000 
1.440270 1.538990 -0.874429 0.000000 0.000000 0.000000 
1.022270 0.705988 -0.134448 0.000000 0.000000 0.000000 
1.421840 -0.138756 -0.547481 0.000000 0.000000 0.000000 
1.252950 1.795810 -0.087652 0.000000 0.000000 0.000000 
1.102220 0.956388 -0.127789 0.000000 0.000000 0.000000 
1.374190 1.218590 -0.839692 0.000000 0.000000 0.000000 
1.196300 0.512754 -0.454195 0.000000 0.000000 0.000000 
1.420490 1.791720 -0.832612 0.000000 0.000000 0.000000 
1.543100 -0.112071 -0.736760 0.000000 0.000000 0.000000 
1.189240 1.189190 -0.569503 0.000000 0.000000 0.000000 
1.427000 1.803250 -0.832863 0.000000 0.000000 0.000000 
1.382200 1.344100 -0.826079 0.000000 0.000000 0.000000 
1.005400 1.242880 -0.137680 0.000000 0.000000 0.000000 
1.455860 2.073460 -0.769600 0.000000 0.000000 0.000000 
1.409050 1.007820 -0.500262 0.000000 0.000000 0.000000 
1.164380 0.917241 -0.319098 0.000000 0.000000 0.000000 
1.220330 1.130180 -0.600255 0.000000 0.000000 0.000000 
1.397890 1.536020 -0.772150 0.000000 0.000000 0.000000 
1.401840 0.933344 -0.835733 0.000000 0.000000 0.000000 
1.306570 0.129798 -0.500569 0.000000 0.000000 0.000000 
1.532270 -0.112402 -0.737498 0.000000 0.000000 0.000000 
1.385010 1.361640 -0.759191 0.000000 0.000000 0.000000 
1.370240 0.542636 -0.729916 0.000000 0.000000 0.000000 
1.131990 0.739319 -0.197045 0.000000 0.000000 0.000000 
1.175170 1.038770 -0.313709 0.000000 0.000000 0.000000 
0.994852 1.104890 -0.172508 0.000000 0.000000 0.000000 
1.231810 1.690860 -0.061130 0.000000 0.000000 0.000000 
1.406740 0.530878 -0.779020 0.000000 0.000000 0.000000 
1.439240 1.134850 -0.879673 0.000000 0.000000 0.000000 
1.521280 0.679816 -0.939188 0.000000 0.000000 0.000000 
1.247880 0.190152 -0.433296 0.000000 0.000000 0.000000 
1.142360 0.145067 -0.209011 0.000000 0.000000 0.000000 
1.378700 0.847994 -0.778385 0.000000 0.000000 0.000000 
1.186660 1.131530 -0.551558 0.000000 0.000000 0.000000 
1.315610 0.032946 -0.474770 0.000000 0.000000 0.000000 
1.419130 1.801660 -0.808492 0.000000 0.000000 0.000000 
1.110660 0.627665 -0.314943 0.000000 0.000000 0.000000 
1.037370 0.956539 -0.125929 0.000000 0.000000 0.000000 
1.423390 -0.138333 -0.546336 0.000000 0.000000 0.000000 
1.157980 1.026580 -0.198327 0.000000 0.000000 0.000000 
1.347100 0.532391 -0.688032 0.000000 0.000000 0.000000 
1.414500 1.793670 -0.806783 0.000000 0.000000 0.000000 
1.096790 0.734372 -0.091671 0.000000 0.000000 0.000000 
1.174900 0.794962 -0.330843 0.000000 0.000000 0.000000 
1.413950 1.540250 -0.705418 0.000000 0.000000 0.000000 
1.112680 1.029300 -0.108109 0.000000 0.000000 0.000000 
1.423280 0.123290 -0.674961 0.000000 0.000000 0.000000 
1.105410 1.152750 -0.412105 0.000000 0.000000 0.000000 
1.622570 -0.266687 -0.756214 0.000000 0.000000 0.000000 
1.318650 1.197450 -0.756808 0.000000 0.000000 0.000000 
1.348780 1.164480 -0.430694 0.000000 0.000000 0.000000 
1.132510 0.142826 -0.216623 0.000000 0.000000 0.000000 
1.164140 -0.016013 -0.158859 0.000000 0.000000 0.000000 
1.133950 -0.044306 -0.103468 0.000000 0.000000 0.000000 
1.147930 0.446296 -0.350046 0.000000 0.000000 0.000000 
1.422850 1.557060 -0.702554 0.000000 0.000000 0.000000 
1.628050 0.169911 -0.980957 0.000000 0.000000 0.000000 
1.036260 1.110760 -0.231752 0.000000 0.000000 0.000000 
1.171210 -0.015632 -0.149143 0.000000 0.000000 0.000000 
1.533390 0.448567 -0.916397 0.000000 0.000000 0.000000 
1.630430 0.169832 -0.982324 0.000000 0.000000 0.000000 
1.299150 0.032056 -0.482552 0.000000 0.000000 0.000000 
1.077410 0.461617 -0.211644 0.000000 0.000000 0.000000 
1.133470 1.144180 -0.455641 0.000000 0.000000 0.000000 
1.292850 -0.100732 -0.358592 0.000000 0.000000 0.000000 
1.295640 1.177510 -0.746560 0.000000 0.000000 0.000000 
1.928500 -0.441054 -1.089150 0.000000 0.000000 0.000000 
1.096930 0.734531 -0.089479 0.000000 0.000000 0.000000 
1.129410 0.609969 -0.333200 0.000000 0.000000 0.000000 
1.125390 1.038560 -0.084519 0.000000 0.000000 0.000000 
1.436630 1.536960 -0.877374 0.000000 0.000000 0.000000 
1.109600 0.335994 -0.232983 0.000000 0.000000 0.000000 
1.073510 0.459901 -0.213389 0.000000 0.000000 0.000000 
1.125030 0.846177 -0.251415 0.000000 0.000000 0.000000 
1.446580 1.934770 -0.746161 0.000000 0.000000 0.000000 
1.434680 1.126770 -0.881587 0.000000 0.000000 0.000000 
1.192420 0.509909 -0.457348 0.000000 0.000000 0.000000 
1.074800 0.712342 -0.112864 0.000000 0.000000 0.000000 
1.223620 0.690196 -0.543876 0.000000 0.000000 0.000000 
1.101150 0.056143 -0.078733 0.000000 0.000000 0.000000 
1.434760 1.553230 -0.632965 0.000000 0.000000 0.000000 
1.179490 0.752151 -0.346123 0.000000 0.000000 0.000000 
1.402320 1.541580 -0.764760 0.000000 0.000000 0.000000 
1.113750 0.825949 -0.147003 0.000000 0.000000 0.000000 
1.362450 0.994993 -0.299351 0.000000 0.000000 0.000000 
1.022880 0.705724 -0.131648 0.000000 0.000000 0.000000 
1.501860 0.825845 -0.939749 0.000000 0.000000 0.000000 
1.080890 0.464522 -0.206132 0.000000 0.000000 0.000000 
1.518770 0.677338 -0.938660 0.000000 0.000000 0.000000 
1.307090 0.158426 -0.519729 0.000000 0.000000 0.000000 
1.124260 0.710026 -0.270363 0.000000 0.000000 0.000000 
1.421740 1.552940 -0.703155 0.000000 0.000000 0.000000 
1.125200 1.002440 -0.142439 0.000000 0.000000 0.000000 
1.102510 0.883239 -0.110843 0.000000 0.000000 0.000000 
1.505500 0.828241 -0.939344 0.000000 0.000000 0.000000 
1.369700 0.601801 -0.710612 0.000000 0.000000 0.000000 
1.152700 1.125830 -0.441757 0.000000 0.000000 0.000000 
1.328690 0.295903 -0.597970 0.000000 0.000000 0.000000 
1.277950 0.422798 -0.556826 0.000000 0.000000 0.000000 
1.356870 1.101810 -0.747994 0.000000 0.000000 0.000000 
1.286700 1.641430 -0.198325 0.000000 0.000000 0.000000 
1.437310 1.934050 -0.806444 0.000000 0.000000 0.000000 
1.379640 0.771970 -0.755445 0.000000 0.000000 0.000000 
1.305360 0.156545 -0.518725 0.000000 0.000000 0.000000 
1.126490 0.279079 -0.260604 0.000000 0.000000 0.000000 
1.182360 1.179920 -0.545623 0.000000 0.000000 0.000000 
1.417180 1.545960 -0.705000 0.000000 0.000000 0.000000 
1.463690 1.801880 -0.879283 0.000000 0.000000 0.000000 
1.491980 0.814997 -0.945592 0.000000 0.000000 0.000000 
1.231090 1.693420 -0.063431 0.000000 0.000000 0.000000 
1.357790 0.986808 -0.307153 0.000000 0.000000 0.000000 
1.433880 1.534060 -0.876629 0.000000 0.000000 0.000000 
1.227720 0.783478 -0.422711 0.000000 0.000000 0.000000 
1.443620 1.148110 -0.875247 0.000000 0.000000 0.000000 
1.305170 0.155622 -0.518161 0.000000 0.000000 0.000000 
1.265530 0.786496 -0.477218 0.000000 0.000000 0.000000 
1.271470 0.419071 -0.552774 0.000000 0.000000 0.000000 
1.167500 0.672056 -0.441868 0.000000 0.000000 0.000000 
1.471650 1.839380 -0.585695 0.000000 0.000000 0.000000 
1.319350 0.653255 -0.683096 0.000000 0.000000 0.000000 
1.312060 1.189720 -0.757178 0.000000 0.000000 0.000000 
1.312390 1.189790 -0.757039 0.000000 0.000000 0.000000 
1.123690 0.605500 -0.335056 0.000000 0.000000 0.000000 
1.378430 0.863779 -0.750741 0.000000 0.000000 0.000000 
1.130040 0.808474 -0.271956 0.000000 0.000000 0.000000 
1.170380 0.972581 -0.306844 0.000000 0.000000 0.000000 
1.067420 0.633686 -0.196444 0.000000 0.000000 0.000000 
1.475990 1.974640 -0.661767 0.000000 0.000000 0.000000 
1.463020 1.600010 -0.584243 0.000000 0.000000 0.000000 
1.083990 0.509742 -0.223618 0.000000 0.000000 0.000000 
1.450610 1.698440 -0.646127 0.000000 0.000000 0.000000 
1.873390 -0.369090 -1.026310 0.000000 0.000000 0.000000 
1.477750 0.304156 -0.794566 0.000000 0.000000 0.000000 
1.485250 0.306793 -0.792733 0.000000 0.000000 0.000000 
1.344530 -0.267929 -0.286862 0.000000 0.000000 0.000000 
1.174110 1.170530 -0.549734 0.000000 0.000000 0.000000 
1.382000 0.876134 -0.680722 0.000000 0.000000 0.000000 
1.075290 1.115130 -0.326977 0.000000 0.000000 0.000000 
1.443450 1.759450 -0.694612 0.000000 0.000000 0.000000 
1.410990 1.534200 -0.707029 0.000000 0.000000 0.000000 
1.427480 -0.141691 -0.545202 0.000000 0.000000 0.000000 
1.404860 0.932473 -0.847284 0.000000 0.000000 0.000000 
1.003580 1.118270 -0.160072 0.000000 0.000000 0.000000 
1.283780 0.809163 -0.512115 0.000000 0.000000 0.000000 
1.081060 1.128800 -0.325891 0.000000 0.000000 0.000000 
1.607090 0.234369 -0.920970 0.000000 0.000000 0.000000 
1.609090 0.231653 -0.921168 0.000000 0.000000 0.000000 
1.618900 0.296073 -0.950859 0.000000 0.000000 0.000000 
1.371240 0.931199 -0.758145 0.000000 0.000000 0.000000 
1.037120 0.944471 -0.125384 0.000000 0.000000 0.000000 
1.424570 1.156580 -0.888245 0.000000 0.000000 0.000000 
1.132270 0.851202 -0.228983 0.000000 0.000000 0.000000 
1.839280 -0.470112 -0.954430 0.000000 0.000000 0.000000 
1.070600 1.115050 -0.334510 0.000000 0.000000 0.000000 
1.553440 0.463341 -0.870007 0.000000 0.000000 0.000000 
1.172270 1.054870 -0.315980 0.000000 0.000000 0.000000 
1.126820 0.608044 -0.332575 0.000000 0.000000 0.000000 
1.255620 0.691005 -0.566778 0.000000 0.000000 0.000000 
1.537330 -0.108590 -0.740458 0.000000 0.000000 0.000000 
1.388980 0.182463 -0.638602 0.000000 0.000000 0.000000 
1.226250 0.691899 -0.541453 0.000000 0.000000 0.000000 
1.142420 1.036440 -0.248496 0.000000 0.000000 0.000000 
1.401590 0.972156 -0.545396 0.000000 0.000000 0.000000 
1.375050 1.299730 -0.793635 0.000000 0.000000 0.000000 
1.371810 1.077450 -0.703900 0.000000 0.000000 0.000000 
1.346870 1.068490 -0.648423 0.000000 0.000000 0.000000 
1.387490 0.960374 -0.705896 0.000000 0.000000 0.000000 
1.111800 0.638946 -0.347565 0.000000 0.000000 0.000000 
1.413880 1.301960 -0.883217 0.000000 0.000000 0.000000 
1.130020 0.788893 -0.266867 0.000000 0.000000 0.000000 
1.158390 0.646045 -0.415447 0.000000 0.000000 0.000000 
1.376640 1.149830 -0.840045 0.000000 0.000000 0.000000 
1.189710 1.195850 -0.562369 0.000000 0.000000 0.000000 
1.462890 1.956310 -0.701736 0.000000 0.000000 0.000000 
1.382520 0.877367 -0.680072 0.000000 0.000000 0.000000 
1.419040 1.645090 -0.833941 0.000000 0.000000 0.000000 
1.428080 0.256902 -0.732220 0.000000 0.000000 0.000000 
1.117330 0.492394 -0.275503 0.000000 0.000000 0.000000 
1.639110 0.918121 -1.105070 0.000000 0.000000 0.000000 
1.368270 0.878217 -0.623766 0.000000 0.000000 0.000000 
1.299910 1.136180 -0.728913 0.000000 0.000000 0.000000 
1.228490 0.219318 -0.416700 0.000000 0.000000 0.000000 
1.224290 0.336486 -0.457954 0.000000 0.000000 0.000000 
1.148830 1.142640 -0.450199 0.000000 0.000000 0.000000 
1.618930 0.290003 -0.948711 0.000000 0.000000 0.000000 
1.191960 0.205470 -0.334882 0.000000 0.000000 0.000000 
1.147610 0.445661 -0.351105 0.000000 0.000000 0.000000 
1.111030 1.161610 -0.404021 0.000000 0.000000 0.000000 
1.480400 -0.349042 -0.458421 0.000000 0.000000 0.000000 
1.567310 0.534597 -0.967937 0.000000 0.000000 0.000000 
1.151300 0.173403 -0.249473 0.000000 0.000000 0.000000 
1.178550 0.667332 -0.470130 0.000000 0.000000 0.000000 
1.479440 0.300248 -0.793051 0.000000 0.000000 0.000000 
1.230080 1.712100 -0.073409 0.000000 0.000000 0.000000 
1.417630 1.307630 -0.882109 0.000000 0.000000 0.000000 
1.456570 1.783080 -0.878936 0.000000 0.000000 0.000000 
1.361070 1.183570 -0.820998 0.000000 0.000000 0.000000 
1.352460 1.171290 -0.824659 0.000000 0.000000 0.000000 
1.192500 0.206424 -0.334449 0.000000 0.000000 0.000000 
1.229120 0.220141 -0.419106 0.000000 0.000000 0.000000 
1.364390 -0.219186 -0.386474 0.000000 0.000000 0.000000 
1.734800 0.325901 -1.091350 0.000000 0.000000 0.000000 
1.429870 0.257208 -0.726770 0.000000 0.000000 0.000000 
1.173990 0.972735 -0.305440 0.000000 0.000000 0.000000 
1.674660 0.176429 -0.982762 0.000000 0.000000 0.000000 
1.143180 1.029660 -0.247689 0.000000 0.000000 0.000000 
1.170060 0.971269 -0.307383 0.000000 0.000000 0.000000 
1.440640 1.579050 -0.884454 0.000000 0.000000 0.000000 
1.419220 1.641880 -0.831779 0.000000 0.000000 0.000000 
1.490370 1.959320 -0.861004 0.000000 0.000000 0.000000 
1.423330 0.727432 -0.830300 0.000000 0.000000 0.000000 
1.636700 0.916621 -1.105790 0.000000 0.000000 0.000000 
1.312270 0.710081 -0.671427 0.000000 0.000000 0.000000 
1.426510 0.254875 -0.729054 0.000000 0.000000 0.000000 
1.397450 0.918092 -0.701918 0.000000 0.000000 0.000000 
1.374110 -0.215355 -0.381278 0.000000 0.000000 0.000000 
1.402850 1.399480 -0.848406 0.000000 0.000000 0.000000 
1.881150 -0.104331 -1.073350 0.000000 0.000000 0.000000 
1.515380 -0.073023 -0.676867 0.000000 0.000000 0.000000 
1.397860 0.926550 -0.845072 0.000000 0.000000 0.000000 
1.339150 0.458828 -0.655213 0.000000 0.000000 0.000000 
1.129520 1.171650 -0.439072 0.000000 0.000000 0.000000 
1.393850 1.327580 -0.849752 0.000000 0.000000 0.000000 
1.223670 0.779422 -0.426414 0.000000 0.000000 0.000000 
1.234650 1.156970 -0.613985 0.000000 0.000000 0.000000 
1.429750 0.256309 -0.729965 0.000000 0.000000 0.000000 
1.121830 1.126150 -0.205787 0.000000 0.000000 0.000000 
1.388910 0.865061 -0.698758 0.000000 0.000000 0.000000 
1.349680 -0.266996 -0.276921 0.000000 0.000000 0.000000 
1.365190 0.597863 -0.737981 0.000000 0.000000 0.000000 
1.645020 0.063017 -0.910490 0.000000 0.000000 0.000000 
1.111600 0.623528 -0.278888 0.000000 0.000000 0.000000 
1.476590 0.171207 -0.748012 0.000000 0.000000 0.000000 
1.283590 1.174920 -0.710866 0.000000 0.000000 0.000000 
1.368410 1.136760 -0.835505 0.000000 0.000000 0.000000 
1.119460 1.122860 -0.208046 0.000000 0.000000 0.000000 
1.543330 -0.361354 -0.542838 0.000000 0.000000 0.000000 
1.654020 0.378980 -0.984743 0.000000 0.000000 0.000000 
1.230770 0.785818 -0.420619 0.000000 0.000000 0.000000 
1.535640 0.662118 -0.950585 0.000000 0.000000 0.000000 
1.130550 0.848716 -0.245080 0.000000 0.000000 0.000000 
1.170530 0.965000 -0.310403 0.000000 0.000000 0.000000 
1.205330 -0.045530 -0.245843 0.000000 0.000000 0.000000 
1.261550 0.678304 -0.587188 0.000000 0.000000 0.000000 
1.421330 1.551070 -0.701204 0.000000 0.000000 0.000000 
2.043150 -0.478101 -1.101540 0.000000 0.000000 0.000000 
1.733420 0.447035 -1.127580 0.000000 0.000000 0.000000 
1.141590 1.026860 -0.249683 0.000000 0.000000 0.000000 
1.540390 0.455228 -0.915780 0.000000 0.000000 0.000000 
1.458110 1.783300 -0.878107 0.000000 0.000000 0.000000 
1.381500 1.369180 -0.793234 0.000000 0.000000 0.000000 
1.379730 1.069570 -0.691877 0.000000 0.000000 0.000000 
1.141860 0.588970 -0.362570 0.000000 0.000000 0.000000 
1.308190 0.701647 -0.673395 0.000000 0.000000 0.000000 
1.217220 0.611859 -0.516910 0.000000 0.000000 0.000000 
1.482010 -0.347894 -0.459265 0.000000 0.000000 0.000000 
1.154870 0.636956 -0.410433 0.000000 0.000000 0.000000 
1.230560 1.152780 -0.619741 0.000000 0.000000 0.000000 
1.262630 0.678931 -0.585916 0.000000 0.000000 0.000000 
1.392440 1.015700 -0.516885 0.000000 0.000000 0.000000 
1.296610 0.291801 -0.550749 0.000000 0.000000 0.000000 
1.273270 0.801483 -0.515288 0.000000 0.000000 0.000000 
1.439940 1.828800 -0.740684 0.000000 0.000000 0.000000 
1.360530 1.121620 -0.787109 0.000000 0.000000 0.000000 
1.442180 1.539110 -0.872421 0.000000 0.000000 0.000000 
1.202090 0.454232 -0.441240 0.000000 0.000000 0.000000 
1.820660 0.439142 -1.206560 0.000000 0.000000 0.000000 
1.447940 1.768180 -0.662813 0.000000 0.000000 0.000000 
1.419890 -0.262239 -0.406731 0.000000 0.000000 0.000000 
1.444690 1.543660 -0.872500 0.000000 0.000000 0.000000 
1.479040 0.302485 -0.794053 0.000000 0.000000 0.000000 
1.462550 1.715920 -0.866400 0.000000 0.000000 0.000000 
1.393880 0.803310 -0.671476 0.000000 0.000000 0.000000 
1.920770 0.046285 -1.175690 0.000000 0.000000 0.000000 
1.633300 0.913805 -1.105350 0.000000 0.000000 0.000000 
1.199040 1.148090 -0.556767 0.000000 0.000000 0.000000 
1.509720 -0.211124 -0.599077 0.000000 0.000000 0.000000 
1.278880 0.422056 -0.559440 0.000000 0.000000 0.000000 
1.425700 1.808990 -0.799245 0.000000 0.000000 0.000000 
1.195700 0.564636 -0.463711 0.000000 0.000000 0.000000 
1.104640 1.134140 -0.345338 0.000000 0.000000 0.000000 
1.277240 0.804176 -0.515169 0.000000 0.000000 0.000000 
1.450490 1.873740 -0.703221 0.000000 0.000000 0.000000 
1.174830 0.679305 -0.434847 0.000000 0.000000 0.000000 
1.297310 0.291867 -0.549858 0.000000 0.000000 0.000000 
1.647080 0.727880 -1.095250 0.000000 0.000000 0.000000 
1.364840 1.037480 -0.765647 0.000000 0.000000 0.000000 
1.477420 1.825760 -0.871099 0.000000 0.000000 0.000000 
1.203880 1.640360 -0.033544 0.000000 0.000000 0.000000 
1.666050 0.600107 -1.086910 0.000000 0.000000 0.000000 
1.231930 1.155450 -0.617564 0.000000 0.000000 0.000000 
1.961140 0.112636 -1.241440 0.000000 0.000000 0.000000 
2.083600 -0.373768 -1.261200 0.000000 0.000000 0.000000 
1.160900 0.843880 -0.294205 0.000000 0.000000 0.000000 
1.711620 0.320861 -1.090960 0.000000 0.000000 0.000000 
1.392150 0.912013 -0.705775 0.000000 0.000000 0.000000 
1.204750 1.641780 -0.033716 0.000000 0.000000 0.000000 
1.339300 0.576480 -0.697073 0.000000 0.000000 0.000000 
1.430690 -0.066933 -0.580528 0.000000 0.000000 0.000000 
2.005060 -0.442081 -1.087700 0.000000 0.000000 0.000000 
1.666400 -0.225979 -0.786149 0.000000 0.000000 0.000000 
1.436770 -0.178642 -0.503839 0.000000 0.000000 0.000000 
1.795420 -0.242513 -0.925288 0.000000 0.000000 0.000000 
1.312030 0.286551 -0.571615 0.000000 0.000000 0.000000 
1.432330 1.623840 -0.671596 0.000000 0.000000 0.000000 
2.139560 -0.393536 -1.267930 0.000000 0.000000 0.000000 
1.952550 0.111017 -1.241870 0.000000 0.000000 0.000000 
1.888450 0.077703 -1.184890 0.000000 0.000000 0.000000 
1.204900 1.641630 -0.030607 0.000000 0.000000 0.000000 
1.262810 0.679504 -0.586014 0.000000 0.000000 0.000000 
1.549610 -0.320868 -0.643425 0.000000 0.000000 0.000000 
1.157120 0.451784 -0.355567 0.000000 0.000000 0.000000 
1.298440 0.552402 -0.620360 0.000000 0.000000 0.000000 
1.604450 0.497763 -0.988770 0.000000 0.000000 0.000000 
1.858660 0.074871 -1.181100 0.000000 0.000000 0.000000 
1.433090 1.625030 -0.676393 0.000000 0.000000 0.000000 
2.136650 -0.393037 -1.266200 0.000000 0.000000 0.000000 
1.307380 0.149835 -0.513968 0.000000 0.000000 0.000000 
1.294450 0.549350 -0.626379 0.000000 0.000000 0.000000 
1.390300 0.200645 -0.648869 0.000000 0.000000 0.000000 
1.279370 0.808061 -0.510518 0.000000 0.000000 0.000000 
1.490960 1.951290 -0.574786 0.000000 0.000000 0.000000 
1.495090 1.960650 -0.575210 0.000000 0.000000 0.000000 
1.922600 0.046911 -1.175550 0.000000 0.000000 0.000000 
1.118430 1.121450 -0.209524 0.000000 0.000000 0.000000 
1.160210 1.187080 -0.496113 0.000000 0.000000 0.000000 
1.376960 0.984915 -0.573815 0.000000 0.000000 0.000000 
1.187470 1.144480 -0.548399 0.000000 0.000000 0.000000 
1.150200 1.056970 -0.284746 0.000000 0.000000 0.000000 
1.278560 0.805025 -0.517242 0.000000 0.000000 0.000000 
1.251600 1.177000 -0.668745 0.000000 0.000000 0.000000 
1.216930 0.611307 -0.516041 0.000000 0.000000 0.000000 
1.240300 1.118490 -0.663793 0.000000 0.000000 0.000000 
1.418830 0.723349 -0.834844 0.000000 0.000000 0.000000 
1.183270 1.137610 -0.556534 0.000000 0.000000 0.000000 
1.422020 1.152570 -0.895456 0.000000 0.000000 0.000000 
1.362460 1.035210 -0.766553 0.000000 0.000000 0.000000 
1.351930 0.555517 -0.712972 0.000000 0.000000 0.000000 
1.179560 1.141760 -0.505941 0.000000 0.000000 0.000000 
1.096310 1.154050 -0.294362 0.000000 0.000000 0.000000 
1.581930 -0.323752 -0.625519 0.000000 0.000000 0.000000 
1.341930 0.527195 -0.693214 0.000000 0.000000 0.000000 
1.262720 0.678462 -0.585597 0.000000 0.000000 0.000000 
1.149330 1.056010 -0.285439 0.000000 0.000000 0.000000 
1.396570 0.806428 -0.669371 0.000000 0.000000 0.000000 
1.281060 1.172640 -0.715506 0.000000 0.000000 0.000000 
1.123820 1.230840 -0.395455 0.000000 0.000000 0.000000 
1.198900 1.147040 -0.557980 0.000000 0.000000 0.000000 
1.298700 0.291331 -0.547445 0.000000 0.000000 0.000000 
1.422210 1.153490 -0.894391 0.000000 0.000000 0.000000 
1.354320 0.557329 -0.710976 0.000000 0.000000 0.000000 
1.702780 -0.314314 -0.775703 0.000000 0.000000 0.000000 
1.225860 0.502505 -0.490666 0.000000 0.000000 0.000000 
1.448180 1.692950 -0.648394 0.000000 0.000000 0.000000 
1.578130 -0.316824 -0.629267 0.000000 0.000000 0.000000 
1.609300 0.231044 -0.920339 0.000000 0.000000 0.000000 
1.185190 0.674728 -0.463588 0.000000 0.000000 0.000000 
1.150790 1.054820 -0.286398 0.000000 0.000000 0.000000 
1.406600 1.423390 -0.856843 0.000000 0.000000 0.000000 
1.962970 0.112622 -1.238270 0.000000 0.000000 0.000000 
1.585380 1.084510 -1.055790 0.000000 0.000000 0.000000 
1.115290 1.166020 -0.400895 0.000000 0.000000 0.000000 
1.217380 0.610126 -0.517720 0.000000 0.000000 0.000000 
1.517640 0.941236 -0.965255 0.000000 0.000000 0.000000 
1.418460 0.820515 -0.842170 0.000000 0.000000 0.000000 
1.566080 -0.116819 -0.726580 0.000000 0.000000 0.000000 
1.152760 1.153580 -0.435320 0.000000 0.000000 0.000000 
1.413520 0.814811 -0.845189 0.000000 0.000000 0.000000 
1.308440 0.277496 -0.567803 0.000000 0.000000 0.000000 
1.305630 0.613228 -0.644982 0.000000 0.000000 0.000000 
1.387410 1.364970 -0.757759 0.000000 0.000000 0.000000 
1.281800 1.173890 -0.714569 0.000000 0.000000 0.000000 
1.301110 0.552927 -0.616887 0.000000 0.000000 0.000000 
1.362270 1.118750 -0.788209 0.000000 0.000000 0.000000 
1.407390 0.529498 -0.778959 0.000000 0.000000 0.000000 
1.694500 0.199308 -0.974640 0.000000 0.000000 0.000000 
1.432360 1.730540 -0.828944 0.000000 0.000000 0.000000 
1.863780 0.150707 -1.140450 0.000000 0.000000 0.000000 
1.786120 0.068412 -1.061590 0.000000 0.000000 0.000000 
1.780530 0.389173 -1.143380 0.000000 0.000000 0.000000 
1.305970 0.611088 -0.645288 0.000000 0.000000 0.000000 
1.767100 0.323205 -1.116010 0.000000 0.000000 0.000000 
1.679720 0.201359 -0.979636 0.000000 0.000000 0.000000 
1.662450 1.004590 -1.134600 0.000000 0.000000 0.000000 
1.312140 0.154885 -0.510868 0.000000 0.000000 0.000000 
1.388220 0.908549 -0.706507 0.000000 0.000000 0.000000 
1.179690 1.182590 -0.517634 0.000000 0.000000 0.000000 
1.735990 0.447184 -1.126680 0.000000 0.000000 0.000000 
1.575990 1.438590 -1.069410 0.000000 0.000000 0.000000 
1.651350 0.301287 -1.118240 0.000000 0.000000 0.000000 
1.821510 0.438813 -1.206190 0.000000 0.000000 0.000000 
1.566030 0.227173 -0.878208 0.000000 0.000000 0.000000 
1.506520 0.930252 -0.970307 0.000000 0.000000 0.000000 
1.168400 1.186880 -0.511598 0.000000 0.000000 0.000000 
1.271730 0.524536 -0.576938 0.000000 0.000000 0.000000 
1.355180 0.995537 -0.305647 0.000000 0.000000 0.000000 
1.360810 0.917044 -0.764132 0.000000 0.000000 0.000000 
1.225490 0.502465 -0.490336 0.000000 0.000000 0.000000 
1.670880 0.602310 -1.088490 0.000000 0.000000 0.000000 
1.137960 1.191720 -0.423785 0.000000 0.000000 0.000000 
1.219610 0.612007 -0.514816 0.000000 0.000000 0.000000 
1.450010 1.598530 -0.871119 0.000000 0.000000 0.000000 
1.504510 -0.305365 -0.536466 0.000000 0.000000 0.000000 
1.392510 0.997223 -0.524205 0.000000 0.000000 0.000000 
1.552590 0.359793 -0.907831 0.000000 0.000000 0.000000 
1.148180 1.166260 -0.440272 0.000000 0.000000 0.000000 
1.797360 -0.241764 -0.924495 0.000000 0.000000 0.000000 
1.398880 1.505970 -0.758347 0.000000 0.000000 0.000000 
1.377010 0.851755 -0.760223 0.000000 0.000000 0.000000 
1.530530 0.791773 -0.950878 0.000000 0.000000 0.000000 
1.639580 0.630648 -1.062710 0.000000 0.000000 0.000000 
1.382030 0.279143 -0.674377 0.000000 0.000000 0.000000 
1.350660 1.017020 -0.632205 0.000000 0.000000 0.000000 
1.234640 0.514298 -0.531005 0.000000 0.000000 0.000000 
1.484360 1.906780 -0.594701 0.000000 0.000000 0.000000 
1.264720 0.605001 -0.585206 0.000000 0.000000 0.000000 
1.296860 0.791957 -0.530770 0.000000 0.000000 0.000000 
1.513710 0.772354 -0.969893 0.000000 0.000000 0.000000 
1.383810 0.766368 -0.811725 0.000000 0.000000 0.000000 
1.395350 1.101660 -0.831298 0.000000 0.000000 0.000000 
1.268070 0.606061 -0.582651 0.000000 0.000000 0.000000 
1.434300 0.967834 -0.878709 0.000000 0.000000 0.000000 
1.214540 0.688697 -0.509582 0.000000 0.000000 0.000000 
1.387030 0.280884 -0.672024 0.000000 0.000000 0.000000 
1.223090 0.499719 -0.496226 0.000000 0.000000 0.000000 
1.921980 0.050397 -1.179420 0.000000 0.000000 0.000000 
1.680590 0.484642 -1.082060 0.000000 0.000000 0.000000 
1.826200 0.437163 -1.206900 0.000000 0.000000 0.000000 
1.395260 1.101540 -0.831117 0.000000 0.000000 0.000000 
1.605530 0.499024 -0.968105 0.000000 0.000000 0.000000 
1.508760 -0.207719 -0.597820 0.000000 0.000000 0.000000 
1.573970 -0.326713 -0.630880 0.000000 0.000000 0.000000 
1.525020 1.710870 -0.930210 0.000000 0.000000 0.000000 
1.336830 0.457180 -0.655381 0.000000 0.000000 0.000000 
1.340970 1.078650 -0.801229 0.000000 0.000000 0.000000 
1.885380 -0.094601 -1.075290 0.000000 0.000000 0.000000 
1.347430 1.065150 -0.649527 0.000000 0.000000 0.000000 
1.448140 1.766130 -0.662919 0.000000 0.000000 0.000000 
1.581850 0.483712 -0.974209 0.000000 0.000000 0.000000 
1.506860 -0.207969 -0.601216 0.000000 0.000000 0.000000 
1.286380 0.663057 -0.618880 0.000000 0.000000 0.000000 
1.638120 0.688304 -1.074760 0.000000 0.000000 0.000000 
1.519680 -0.075259 -0.672207 0.000000 0.000000 0.000000 
1.223970 0.690235 -0.542114 0.000000 0.000000 0.000000 
1.524920 1.713040 -0.927995 0.000000 0.000000 0.000000 
1.578480 1.077140 -1.058150 0.000000 0.000000 0.000000 
1.402760 1.121480 -0.848550 0.000000 0.000000 0.000000 
1.285170 0.661865 -0.620099 0.000000 0.000000 0.000000 
1.708530 1.220740 -1.215660 0.000000 0.000000 0.000000 
1.377360 1.342520 -0.809234 0.000000 0.000000 0.000000 
1.521250 1.705780 -0.929698 0.000000 0.000000 0.000000 
1.417480 0.721254 -0.837321 0.000000 0.000000 0.000000 
1.569050 1.176580 -1.044350 0.000000 0.000000 0.000000 
1.406290 0.039069 -0.600156 0.000000 0.000000 0.000000 
1.710420 1.221860 -1.216680 0.000000 0.000000 0.000000 
1.432120 0.966634 -0.879197 0.000000 0.000000 0.000000 
1.518260 0.776832 -0.966251 0.000000 0.000000 0.000000 
1.562100 0.356077 -0.890355 0.000000 0.000000 0.000000 
1.420240 0.037425 -0.582019 0.000000 0.000000 0.000000 
1.526980 1.713780 -0.930305 0.000000 0.000000 0.000000 
1.973540 -0.377152 -1.006870 0.000000 0.000000 0.000000 
1.521230 1.699440 -0.934106 0.000000 0.000000 0.000000 
1.445590 1.760450 -0.665982 0.000000 0.000000 0.000000 
1.520100 0.778244 -0.965403 0.000000 0.000000 0.000000 
1.974260 -0.109919 -1.144940 0.000000 0.000000 0.000000 
1.379660 1.069830 -0.691761 0.000000 0.000000 0.000000 
1.436880 -0.068746 -0.575291 0.000000 0.000000 0.000000 
1.224120 1.133160 -0.597697 0.000000 0.000000 0.000000 
1.664260 -0.228353 -0.762738 0.000000 0.000000 0.000000 
1.357910 1.028340 -0.659824 0.000000 0.000000 0.000000 
1.666640 0.371612 -1.007720 0.000000 0.000000 0.000000 
1.776710 0.145928 -1.075560 0.000000 0.000000 0.000000 
1.379860 1.055190 -0.707470 0.000000 0.000000 0.000000 
1.522840 0.505473 -0.906006 0.000000 0.000000 0.000000 
1.316390 0.712476 -0.664034 0.000000 0.000000 0.000000 
1.402330 1.309240 -0.861320 0.000000 0.000000 0.000000 
1.921400 0.704759 -1.337690 0.000000 0.000000 0.000000 
1.658250 0.365100 -1.005260 0.000000 0.000000 0.000000 
1.946300 0.514322 -1.327190 0.000000 0.000000 0.000000 
1.378630 0.870634 -0.701756 0.000000 0.000000 0.000000 
1.363510 1.062620 -0.758197 0.000000 0.000000 0.000000 
1.387330 1.421740 -0.786107 0.000000 0.000000 0.000000 
1.671760 1.395410 -1.174180 0.000000 0.000000 0.000000 
1.362680 1.072650 -0.708269 0.000000 0.000000 0.000000 
1.824200 0.437346 -1.204760 0.000000 0.000000 0.000000 
1.762740 1.052670 -1.247140 0.000000 0.000000 0.000000 
1.392260 0.801289 -0.674344 0.000000 0.000000 0.000000 
1.662320 1.568670 -1.136130 0.000000 0.000000 0.000000 
1.335870 0.573559 -0.700542 0.000000 0.000000 0.000000 
1.406160 0.647100 -0.814118 0.000000 0.000000 0.000000 
1.710010 1.220570 -1.217480 0.000000 0.000000 0.000000 
1.603480 1.485550 -1.062990 0.000000 0.000000 0.000000 
1.379410 0.305708 -0.690722 0.000000 0.000000 0.000000 
1.525580 0.441646 -0.921615 0.000000 0.000000 0.000000 
1.322780 1.175340 -0.773233 0.000000 0.000000 0.000000 
1.430110 0.963857 -0.882363 0.000000 0.000000 0.000000 
1.601260 1.481460 -1.064080 0.000000 0.000000 0.000000 
1.389720 1.083330 -0.679713 0.000000 0.000000 0.000000 
1.449480 1.677170 -0.619404 0.000000 0.000000 0.000000 
1.391790 1.018670 -0.519109 0.000000 0.000000 0.000000 
1.393990 0.804295 -0.671283 0.000000 0.000000 0.000000 
1.571890 1.415120 -1.030420 0.000000 0.000000 0.000000 
1.782730 0.658508 -1.219580 0.000000 0.000000 0.000000 
1.412250 0.674219 -0.825067 0.000000 0.000000 0.000000 
1.529480 0.444147 -0.918872 0.000000 0.000000 0.000000 
1.650810 0.697461 -1.071050 0.000000 0.000000 0.000000 
1.683040 0.169555 -0.984469 0.000000 0.000000 0.000000 
1.285620 1.180390 -0.707966 0.000000 0.000000 0.000000 
1.410190 1.616890 -0.762275 0.000000 0.000000 0.000000 
1.674820 1.271530 -1.173690 0.000000 0.000000 0.000000 
1.877270 0.189182 -1.179810 0.000000 0.000000 0.000000 
1.655180 0.998415 -1.136600 0.000000 0.000000 0.000000 
1.429460 0.449835 -0.787309 0.000000 0.000000 0.000000 
1.376730 1.234310 -0.849630 0.000000 0.000000 0.000000 
1.427610 0.447680 -0.791921 0.000000 0.000000 0.000000 
1.390090 1.429710 -0.777747 0.000000 0.000000 0.000000 
1.414670 1.144980 -0.899327 0.000000 0.000000 0.000000 
1.384120 1.005440 -0.536561 0.000000 0.000000 0.000000 
1.396970 1.016140 -0.514316 0.000000 0.000000 0.000000 
1.378110 0.869551 -0.703199 0.000000 0.000000 0.000000 
1.641460 0.418643 -1.024120 0.000000 0.000000 0.000000 
1.465480 0.407622 -0.821661 0.000000 0.000000 0.000000 
1.430600 1.507040 -0.874063 0.000000 0.000000 0.000000 
1.415660 0.815634 -0.850601 0.000000 0.000000 0.000000 
1.233670 1.156810 -0.615030 0.000000 0.000000 0.000000 
1.666070 1.836120 -1.141040 0.000000 0.000000 0.000000 
1.307290 0.614526 -0.643256 0.000000 0.000000 0.000000 
1.229020 1.144450 -0.515185 0.000000 0.000000 0.000000 
1.605210 -0.116457 -0.756955 0.000000 0.000000 0.000000 
1.455160 0.116184 -0.692577 0.000000 0.000000 0.000000 
1.366040 1.135700 -0.843758 0.000000 0.000000 0.000000 
1.804190 0.969084 -1.281110 0.000000 0.000000 0.000000 
1.338320 0.575570 -0.696991 0.000000 0.000000 0.000000 
1.517410 1.507820 -0.953250 0.000000 0.000000 0.000000 
1.670240 1.390790 -1.166660 0.000000 0.000000 0.000000 
1.714150 0.373627 -1.098290 0.000000 0.000000 0.000000 
1.655680 1.749070 -1.126070 0.000000 0.000000 0.000000 
1.405630 1.419460 -0.857432 0.000000 0.000000 0.000000 
1.666090 1.292640 -1.171520 0.000000 0.000000 0.000000 
1.385960 1.406420 -0.798331 0.000000 0.000000 0.000000 
1.373210 0.765421 -0.777986 0.000000 0.000000 0.000000 
1.674530 1.269910 -1.174840 0.000000 0.000000 0.000000 
1.347060 1.068670 -0.648314 0.000000 0.000000 0.000000 
1.828350 1.027390 -1.305330 0.000000 0.000000 0.000000 
1.564100 1.172260 -1.046570 0.000000 0.000000 0.000000 
1.557310 0.409896 -0.942760 0.000000 0.000000 0.000000 
1.300380 1.143810 -0.726535 0.000000 0.000000 0.000000 
1.402340 1.309960 -0.861676 0.000000 0.000000 0.000000 
1.395890 0.956782 -0.526194 0.000000 0.000000 0.000000 
1.560460 0.412672 -0.940078 0.000000 0.000000 0.000000 
1.424680 1.528440 -0.855700 0.000000 0.000000 0.000000 
1.600780 -0.111234 -0.759016 0.000000 0.000000 0.000000 
1.278860 1.136350 -0.697284 0.000000 0.000000 0.000000 
1.665190 -0.232478 -0.763989 0.000000 0.000000 0.000000 
1.700720 0.205594 -1.006510 0.000000 0.000000 0.000000 
1.559920 0.786501 -1.026040 0.000000 0.000000 0.000000 
1.334850 1.148000 -0.447708 0.000000 0.000000 0.000000 
1.654530 1.779180 -1.129270 0.000000 0.000000 0.000000 
1.721410 2.048530 -1.162560 0.000000 0.000000 0.000000 
1.652360 1.774590 -1.130240 0.000000 0.000000 0.000000 
1.414480 0.038001 -0.589224 0.000000 0.000000 0.000000 
1.743940 0.533595 -1.139390 0.000000 0.000000 0.000000 
1.897490 0.258484 -1.212100 0.000000 0.000000 0.000000 
2.077180 0.435365 -1.418500 0.000000 0.000000 0.000000 
1.711160 1.744940 -1.195560 0.000000 0.000000 0.000000 
1.663430 0.597379 -1.088310 0.000000 0.000000 0.000000 
1.803370 0.967162 -1.281550 0.000000 0.000000 0.000000 
1.382410 0.873866 -0.702082 0.000000 0.000000 0.000000 
1.891060 0.258235 -1.214040 0.000000 0.000000 0.000000 
1.725730 0.377656 -1.091810 0.000000 0.000000 0.000000 
1.428720 1.164150 -0.887356 0.000000 0.000000 0.000000 
1.684980 1.216070 -1.179810 0.000000 0.000000 0.000000 
1.389110 0.887684 -0.689144 0.000000 0.000000 0.000000 
1.401160 0.795012 -0.732360 0.000000 0.000000 0.000000 
1.798640 0.961976 -1.282660 0.000000 0.000000 0.000000 
1.645010 0.724431 -1.097800 0.000000 0.000000 0.000000 
1.709690 0.576827 -1.142770 0.000000 0.000000 0.000000 
1.668090 1.466940 -1.162820 0.000000 0.000000 0.000000 
1.440250 -0.069159 -0.571676 0.000000 0.000000 0.000000 
1.704920 1.779120 -1.192450 0.000000 0.000000 0.000000 
1.692660 0.204052 -1.010150 0.000000 0.000000 0.000000 
1.716320 0.812477 -1.179820 0.000000 0.000000 0.000000 
1.382170 0.872710 -0.702502 0.000000 0.000000 0.000000 
1.694980 0.204289 -1.008490 0.000000 0.000000 0.000000 
1.507130 0.931423 -0.969726 0.000000 0.000000 0.000000 
1.390230 0.398453 -0.719326 0.000000 0.000000 0.000000 
1.812310 -0.133077 -0.983811 0.000000 0.000000 0.000000 
1.322780 1.174360 -0.772764 0.000000 0.000000 0.000000 
1.557800 0.411500 -0.941159 0.000000 0.000000 0.000000 
1.368400 0.547093 -0.735318 0.000000 0.000000 0.000000 
1.808760 1.244950 -1.307890 0.000000 0.000000 0.000000 
1.365850 1.067420 -0.754592 0.000000 0.000000 0.000000 
1.901030 0.257896 -1.211720 0.000000 0.000000 0.000000 
1.385280 1.005300 -0.535014 0.000000 0.000000 0.000000 
1.672790 1.765280 -1.155120 0.000000 0.000000 0.000000 
1.669300 1.626540 -1.161780 0.000000 0.000000 0.000000 
1.842300 0.117887 -1.125410 0.000000 0.000000 0.000000 
1.346960 1.070950 -0.647674 0.000000 0.000000 0.000000 
1.657430 0.735223 -1.141000 0.000000 0.000000 0.000000 
1.658600 1.927040 -1.105320 0.000000 0.000000 0.000000 
1.691130 0.203104 -1.011290 0.000000 0.000000 0.000000 
1.969930 -0.108976 -1.141890 0.000000 0.000000 0.000000 
1.396170 1.045180 -0.833718 0.000000 0.000000 0.000000 
1.706730 1.778900 -1.193130 0.000000 0.000000 0.000000 
1.621680 1.118670 -1.109080 0.000000 0.000000 0.000000 
1.837050 0.118470 -1.128100 0.000000 0.000000 0.000000 
1.641980 0.580199 -1.086260 0.000000 0.000000 0.000000 
1.680160 1.774560 -1.156090 0.000000 0.000000 0.000000 
1.960340 -0.085026 -1.148350 0.000000 0.000000 0.000000 
1.507680 0.930577 -0.970587 0.000000 0.000000 0.000000 
1.357190 1.108240 -0.746138 0.000000 0.000000 0.000000 
1.668860 1.388530 -1.174710 0.000000 0.000000 0.000000 
1.562180 0.412358 -0.938300 0.000000 0.000000 0.000000 
1.357470 0.815381 -0.623791 0.000000 0.000000 0.000000 
1.554090 0.427416 -0.958181 0.000000 0.000000 0.000000 
1.357250 1.178580 -0.822494 0.000000 0.000000 0.000000 
1.344520 1.140440 -0.796690 0.000000 0.000000 0.000000 
1.408010 0.729291 -0.830605 0.000000 0.000000 0.000000 
1.467840 0.604250 -0.893229 0.000000 0.000000 0.000000 
1.557800 0.789854 -1.012720 0.000000 0.000000 0.000000 
1.682240 0.757618 -1.139070 0.000000 0.000000 0.000000 
1.971620 0.278782 -1.290570 0.000000 0.000000 0.000000 
1.694720 -0.064140 -0.878979 0.000000 0.000000 0.000000 
1.473340 0.292321 -0.796055 0.000000 0.000000 0.000000 
1.929090 0.510657 -1.329270 0.000000 0.000000 0.000000 
1.527940 -0.078759 -0.667311 0.000000 0.000000 0.000000 
1.469870 0.605674 -0.891850 0.000000 0.000000 0.000000 
1.479630 0.170360 -0.747812 0.000000 0.000000 0.000000 
1.668380 1.387520 -1.173050 0.000000 0.000000 0.000000 
1.589220 0.295752 -0.946240 0.000000 0.000000 0.000000 
1.778880 0.320423 -1.112910 0.000000 0.000000 0.000000 
1.974940 -0.109148 -1.145130 0.000000 0.000000 0.000000 
1.523590 1.705480 -0.930029 0.000000 0.000000 0.000000 
1.314910 1.141590 -0.574795 0.000000 0.000000 0.000000 
1.559240 0.879999 -1.048820 0.000000 0.000000 0.000000 
2.105430 -0.012226 -1.305840 0.000000 0.000000 0.000000 
1.728710 0.526487 -1.146360 0.000000 0.000000 0.000000 
1.417500 1.258310 -0.887384 0.000000 0.000000 0.000000 
1.895750 1.042280 -1.366450 0.000000 0.000000 0.000000 
2.081720 0.497064 -1.437710 0.000000 0.000000 0.000000 
1.693460 0.202002 -1.009580 0.000000 0.000000 0.000000 
1.481230 0.806102 -0.953933 0.000000 0.000000 0.000000 
1.355000 1.176900 -0.823125 0.000000 0.000000 0.000000 
1.431510 1.511150 -0.871209 0.000000 0.000000 0.000000 
1.633600 0.945746 -1.129930 0.000000 0.000000 0.000000 
1.356620 0.813751 -0.625812 0.000000 0.000000 0.000000 
1.731550 0.528352 -1.144610 0.000000 0.000000 0.000000 
1.713100 1.834730 -1.186160 0.000000 0.000000 0.000000 
1.495840 0.453703 -0.882090 0.000000 0.000000 0.000000 
1.429090 1.178020 -0.893486 0.000000 0.000000 0.000000 
