1.511460 0.854898 -0.971995 
1.231390 0.314548 -0.582515 
1.166680 0.580217 -0.447922 
1.357790 -0.363211 -0.887282 
1.481390 1.974030 -0.744870 
1.697650 2.370460 -1.153150 
1.329260 1.096630 -0.718025 
1.518070 1.108090 -0.902580 
1.104990 0.914264 -0.295341 
1.079550 0.024871 -0.292093 
1.777670 1.285160 -1.110970 
1.417820 0.131346 -0.960225 
1.196590 1.124040 -0.586171 
1.303970 1.091490 -0.663899 
1.349030 -0.381151 -0.878387 
1.239460 1.150520 -0.666637 
1.165830 0.579553 -0.449189 
1.111400 0.249717 -0.385884 
1.548960 0.788032 -1.179780 
1.118300 0.774923 -0.337237 
1.469390 1.912940 -0.308682 
1.437030 0.108175 -0.995876 
1.536820 -0.136749 -1.123420 
1.463470 1.986990 -0.767187 
1.477210 1.788530 -0.294881 
1.418990 -0.217727 -0.977049 
1.348280 1.157610 -0.910529 
1.117110 -0.058947 -0.405527 
1.299020 1.106720 -0.846490 
1.497670 0.322191 -1.122340 
1.642890 2.197260 -0.626883 
1.452100 1.835340 -0.285923 
1.222910 -0.006380 -0.600143 
1.272630 0.509256 -0.655439 
1.496260 1.998150 -0.864128 
1.468840 0.591292 -1.042500 
1.128020 0.253116 -0.380019 
1.478130 -0.339044 -1.125750 
1.348890 1.159580 -0.911536 
1.206760 0.743657 -0.523210 
1.194550 0.291661 -0.537107 
1.398700 0.440131 -0.911462 
1.279550 0.905017 -0.650074 
1.441700 1.188290 -1.086810 
1.408400 1.171520 -1.017270 
1.416590 -0.047399 -0.949444 
1.111790 0.767359 -0.337275 
1.234560 0.327960 -0.598843 
1.256680 0.540683 -0.642316 
1.108130 1.072460 -0.450983 
1.104810 1.067960 -0.451156 
1.874200 2.351100 -1.030930 
1.748350 2.073600 -0.825559 
1.321750 0.405950 -0.752705 
1.218550 1.071930 -0.519762 
1.461270 0.459361 -1.039350 
1.378010 -0.108479 -0.870771 
1.937650 2.310610 -1.179660 
1.518130 1.749810 -0.383438 
1.058720 1.032730 -0.350368 
1.490590 1.902710 -0.758568 
1.449200 1.193910 -1.086650 
1.363670 1.170530 -0.957071 
1.699690 1.155650 -1.289930 
1.249200 1.148270 -0.678678 
1.108820 0.248765 -0.387544 
1.506590 0.854568 -0.853917 
1.282900 1.023270 -0.641687 
1.183180 0.797852 -0.465717 
1.253600 0.363267 -0.644940 
1.447940 1.195120 -1.087770 
1.167130 -0.119883 -0.451751 
1.802340 1.146340 -1.176290 
1.940820 2.315940 -1.181160 
1.522570 1.132140 -0.947321 
1.106300 1.155900 -0.433071 
1.530280 1.892160 -0.799300 
1.357910 -0.402460 -0.946304 
1.325200 0.425690 -0.768497 
1.537140 -0.347263 -1.234030 
1.299910 1.107230 -0.846334 
1.450150 1.873390 -0.261581 
1.303490 1.225760 -0.825354 
1.307390 0.226547 -0.767899 
1.514610 1.011780 -0.925767 
1.218440 -0.005905 -0.600273 
1.360330 0.993143 -0.809426 
1.568840 1.852820 -0.662689 
1.324110 0.912718 -0.724455 
1.736340 1.000930 -1.266320 
1.353830 -0.187146 -0.840632 
1.438320 1.866210 -0.264526 
1.190570 1.117430 -0.587557 
1.384600 1.878820 -0.145995 
1.282160 1.102860 -0.765165 
1.163570 0.934093 -0.410023 
1.296460 1.215760 -0.825811 
1.133610 0.090398 -0.408406 
1.326250 0.755802 -0.778558 
1.394680 0.437891 -0.911195 
1.520220 1.942580 -0.416340 
1.465820 1.927470 -0.751758 
1.122990 0.089517 -0.413009 
1.501530 0.847854 -0.861115 
1.390640 0.335573 -0.895280 
1.188480 0.266585 -0.543451 
1.507830 -0.128686 -1.109110 
1.162070 1.156180 -0.522744 
1.488960 0.765823 -1.053300 
1.376480 -0.382201 -0.963400 
1.635250 0.923010 -1.142320 
1.434890 1.860710 -0.265218 
1.289630 1.194410 -0.813227 
1.748370 1.138300 -1.233160 
1.798040 2.433200 -1.132620 
1.365110 1.814060 -0.155439 
1.409910 -0.357038 -1.057900 
1.463160 1.763300 -0.296779 
1.227100 0.406354 -0.585358 
1.513170 -0.346267 -1.177940 
1.171360 0.159280 -0.470467 
1.539740 1.125810 -0.972874 
1.438530 0.104861 -0.995200 
1.323190 0.752649 -0.779493 
1.371940 0.673207 -0.842801 
1.996400 2.224970 -1.379910 
1.320610 0.405725 -0.752768 
1.498380 -0.119277 -1.107150 
1.183800 0.297114 -0.511929 
1.298310 1.376570 -0.768487 
1.266860 1.181100 -0.750320 
1.241360 1.164360 -0.637216 
1.400350 1.409620 -0.680560 
1.570020 0.788510 -1.210490 
1.523670 1.209330 -1.221690 
1.733490 1.988560 -0.785721 
1.569110 1.827620 -0.626701 
1.186410 0.909848 -0.463643 
1.246330 0.842159 -0.605392 
1.572040 0.889566 -1.056930 
1.196270 -0.015434 -0.574942 
2.005990 2.124880 -1.350410 
1.558810 -0.362228 -1.202120 
1.569440 1.874760 -0.633319 
1.490480 0.946158 -0.889691 
1.181720 0.246930 -0.545063 
1.374540 1.446510 -0.710986 
1.275980 -0.227989 -0.653880 
1.222560 -0.299818 -0.603812 
1.533450 0.793434 -1.160410 
1.964470 1.841590 -1.305690 
1.195280 0.796334 -0.501529 
1.490870 0.302959 -1.109970 
1.184520 0.906518 -0.466917 
1.235910 1.155920 -0.635821 
1.150450 1.040620 -0.388322 
1.160440 0.442326 -0.463139 
1.335050 0.078812 -0.782171 
1.792740 1.114180 -1.218890 
1.502700 1.907800 -0.423577 
1.934540 1.765130 -1.312490 
1.542310 1.127700 -0.972204 
1.119130 0.336536 -0.391274 
1.489900 -0.345316 -1.130110 
1.873310 2.350340 -1.031060 
1.227280 0.746019 -0.567084 
1.330920 0.079716 -0.783738 
1.921800 2.284590 -1.180760 
1.222650 0.508483 -0.590542 
1.368160 0.525657 -0.858500 
1.225470 0.508048 -0.589490 
1.352240 0.388338 -0.829055 
1.805600 1.142660 -1.177860 
1.270350 1.184540 -0.747842 
1.170600 1.062570 -0.522156 
1.567220 1.827250 -0.622591 
1.569000 0.415430 -1.274340 
1.252930 1.181590 -0.633368 
1.622130 0.659821 -1.323520 
1.131550 1.051290 -0.478142 
1.727040 2.336920 -1.283210 
1.613740 0.655721 -1.320160 
1.732310 0.998088 -1.264120 
1.376810 1.169680 -0.966744 
1.251030 1.101380 -0.681395 
1.356400 0.389023 -0.828781 
1.350480 1.168270 -0.916465 
1.350720 0.184389 -0.834445 
1.557730 0.411680 -1.270850 
1.505040 0.239252 -1.083280 
1.698110 1.149950 -1.346780 
1.488120 0.841301 -0.863083 
1.483250 0.939923 -0.888847 
1.510100 1.860030 -0.801033 
1.739040 2.357640 -1.286910 
1.519840 0.069322 -1.154810 
1.206610 0.927006 -0.492491 
1.488200 1.902080 -0.754926 
1.368600 1.438430 -0.710999 
1.330130 1.113610 -0.883784 
1.989720 2.099300 -1.349500 
1.373190 0.674252 -0.843094 
1.242050 -0.097479 -0.624348 
1.180690 0.905084 -0.465519 
1.478470 0.355882 -1.066650 
1.344210 1.151490 -0.908101 
1.520210 1.001760 -0.971100 
1.305560 -0.235177 -0.747824 
1.950500 2.042040 -1.377520 
1.936940 1.993410 -1.229290 
1.210230 0.568760 -0.527600 
1.362930 0.985279 -0.813797 
1.518120 1.001150 -0.971187 
1.855550 1.164090 -1.163990 
1.319800 0.766489 -0.766164 
1.315270 0.619525 -0.742725 
1.933950 1.992240 -1.224650 
1.319850 0.766177 -0.765981 
1.433160 0.717734 -0.970552 
1.186430 0.668268 -0.509179 
1.568570 0.785319 -1.214640 
1.300870 -0.141078 -0.757705 
1.504390 0.944181 -0.960591 
1.956580 2.299380 -1.226180 
1.696990 2.206240 -0.861154 
1.217590 1.147560 -0.579374 
1.951530 2.043510 -1.377320 
1.443030 0.723324 -0.967867 
1.163190 0.466023 -0.468718 
1.323300 1.099050 -0.709400 
1.490760 0.758531 -0.976728 
1.303480 1.213990 -0.819747 
1.413820 1.147210 -1.013030 
1.185990 0.553881 -0.496881 
1.355280 0.388489 -0.828198 
1.134830 1.052690 -0.480371 
1.578060 1.946120 -0.526657 
1.552400 1.828790 -0.463893 
1.971750 2.371010 -1.173940 
1.235930 0.968765 -0.523918 
1.700470 1.152960 -1.348260 
1.456510 1.201570 -1.087640 
1.528310 1.809450 -0.290221 
1.266950 1.111830 -0.687515 
1.351280 1.306000 -0.842171 
1.313540 0.241790 -0.765613 
1.716520 1.108760 -1.265700 
1.770820 1.513300 -1.406360 
1.276830 1.111100 -0.716873 
1.678180 0.995826 -1.377610 
1.490520 0.583790 -1.084610 
1.583600 1.900840 -0.719348 
1.427550 0.719635 -0.971961 
1.562490 0.786921 -1.192660 
1.281180 1.022080 -0.641118 
1.282580 0.724676 -0.677499 
1.491940 1.621530 -0.617057 
1.571490 0.889617 -1.056730 
1.205130 0.588451 -0.529552 
1.345980 1.298490 -0.842667 
1.346540 1.123220 -0.899384 
1.472070 0.615337 -1.051070 
1.252000 1.100540 -0.681795 
1.502850 1.221840 -1.185860 
1.260230 0.365548 -0.644449 
1.351380 0.185316 -0.835507 
1.577520 2.054090 -0.663816 
1.576720 0.893887 -1.055620 
1.489400 1.234090 -1.138930 
1.506750 1.231990 -1.206120 
1.966840 1.920780 -1.318980 
1.462710 0.355414 -1.050680 
1.362650 0.522243 -0.859912 
1.226600 0.256554 -0.559708 
1.209010 1.040030 -0.703865 
1.626590 2.028990 -0.506107 
2.003770 2.263380 -1.312980 
1.261460 1.112970 -0.677489 
1.282350 0.723907 -0.677345 
1.949830 2.040170 -1.378310 
1.348330 0.687582 -0.814138 
1.847980 1.615450 -1.346040 
1.873370 1.703050 -1.350210 
1.233060 -0.085918 -0.635504 
1.891570 1.860290 -1.387350 
1.725070 1.113410 -1.266100 
1.728430 1.171450 -1.336600 
1.610000 0.086918 -1.297010 
1.181790 1.093990 -0.539217 
2.017200 2.249900 -1.365080 
1.544690 0.785850 -1.177590 
1.721420 0.988768 -1.317300 
1.191480 1.096360 -0.570685 
1.244870 1.155440 -0.667110 
1.419880 0.726504 -0.944684 
1.428120 0.733560 -0.947595 
1.364760 0.523676 -0.858292 
1.538760 0.764515 -1.220040 
1.322430 1.102230 -0.708539 
1.706930 0.964598 -1.313280 
1.525900 1.761730 -0.399787 
1.813200 1.661380 -1.415400 
1.724300 1.999790 -0.821337 
1.786600 1.095910 -1.203950 
1.265150 1.197850 -0.625808 
1.699520 1.153750 -1.352280 
1.667210 0.988691 -1.374990 
1.248570 0.536358 -0.644460 
1.293800 1.064570 -0.714113 
1.996720 2.249940 -1.311070 
1.312000 1.320150 -0.759892 
1.849660 1.762070 -1.398940 
1.332580 0.074504 -0.783398 
1.874500 1.705750 -1.350340 
1.244240 0.362166 -0.652218 
1.716220 1.054730 -1.261480 
1.355740 1.311860 -0.840481 
1.467160 0.457940 -1.039530 
1.256430 1.096670 -0.687436 
1.700400 1.153310 -1.349430 
1.397850 0.548602 -0.921488 
1.736800 2.018910 -0.817760 
1.263460 0.644320 -0.642676 
1.394920 0.582313 -0.912173 
1.238060 0.517912 -0.584190 
1.304730 1.224970 -0.823714 
1.501430 1.219260 -1.182780 
1.853010 1.767020 -1.400160 
1.726410 2.000770 -0.822240 
1.917520 1.966450 -1.231960 
1.478960 0.941827 -0.898217 
1.315360 1.239260 -0.821702 
1.293270 0.818616 -0.699787 
1.989840 2.221680 -1.389070 
1.965970 1.920650 -1.316920 
1.499780 0.954135 -0.907291 
1.498690 1.217130 -1.185230 
1.392820 0.339127 -0.894194 
1.322300 1.104370 -0.707613 
1.616050 1.233300 -1.393460 
1.514820 0.067823 -1.155580 
1.600450 0.803301 -1.272230 
1.496890 1.016620 -0.908448 
1.656180 0.845212 -1.373360 
1.516110 1.185840 -1.203470 
1.609330 0.076973 -1.321760 
1.854860 1.772870 -1.402430 
1.258650 0.468544 -0.652775 
1.621630 -0.309282 -1.359980 
1.973990 2.251270 -1.423630 
1.490880 0.843847 -0.855387 
1.338540 1.284140 -0.844138 
1.509400 0.644946 -1.101260 
1.474340 0.753124 -1.054930 
1.481810 0.838584 -0.863098 
1.288450 1.032410 -0.637730 
1.520990 0.783251 -1.160290 
1.416420 1.151060 -1.011990 
1.646590 0.843301 -1.366440 
1.402760 0.723190 -0.911595 
1.385220 0.483568 -0.878588 
1.287990 0.013075 -0.690485 
1.642180 0.637258 -1.367130 
1.545070 1.191200 -1.251450 
1.480890 0.298556 -1.070610 
1.546880 -0.080389 -1.161110 
1.631710 -0.312304 -1.362350 
1.293860 0.384193 -0.696151 
1.481890 0.759006 -1.054830 
1.703620 1.150470 -1.285860 
1.310690 1.288380 -0.774358 
1.732940 1.436100 -1.432780 
1.312730 0.720065 -0.747182 
1.626140 0.651670 -1.330060 
1.667430 0.927204 -1.380900 
1.587200 1.214620 -1.348040 
2.003230 2.117850 -1.352770 
1.290470 0.383892 -0.696027 
1.577180 1.919270 -0.716043 
1.639660 0.635570 -1.367560 
1.633270 0.075057 -1.324130 
1.549320 -0.080892 -1.161410 
1.514520 -0.113954 -1.101380 
1.705280 1.139060 -1.274520 
1.373560 -0.167702 -0.838045 
1.790020 1.154420 -1.206160 
1.607550 0.402119 -1.314330 
1.305580 0.008710 -0.682791 
1.610220 0.399596 -1.313370 
1.381050 0.483469 -0.879328 
1.570740 0.087702 -1.286080 
1.511520 0.324551 -1.122260 
1.660430 0.855867 -1.364000 
1.458490 1.185750 -1.097900 
1.546510 1.191700 -1.252150 
1.773310 1.510750 -1.413900 
1.991310 2.229640 -1.393100 
1.357580 0.963329 -0.825677 
1.376540 -0.174459 -0.837004 
1.320480 0.754625 -0.776582 
1.545840 -0.079224 -1.160730 
1.814080 1.936180 -1.503930 
1.929290 1.766800 -1.315240 
1.456600 1.182730 -1.098340 
1.601600 0.805871 -1.272240 
1.740250 1.185290 -1.302270 
1.492920 0.321554 -1.121650 
1.763140 1.820030 -0.913132 
1.467450 0.908230 -0.800718 
1.816900 1.664830 -1.414840 
1.420350 0.132080 -0.960321 
1.464610 0.617969 -1.048860 
1.957330 2.169350 -1.395960 
1.751700 1.617230 -1.467510 
1.310960 0.717724 -0.748852 
1.546690 0.438777 -1.195040 
1.563540 0.509758 -1.217210 
1.702910 1.101250 -1.267820 
1.551160 1.194110 -1.252220 
1.811420 1.724260 -1.419940 
1.962760 2.224370 -1.419240 
1.940430 2.096890 -1.368190 
1.350740 0.242606 -0.840151 
1.315210 0.924498 -0.716633 
1.637580 0.822629 -1.247270 
1.285180 1.107500 -0.764159 
1.302270 0.710299 -0.751588 
1.533170 -0.248948 -1.127350 
1.928530 1.765160 -1.318260 
1.586590 1.212620 -1.344740 
1.761900 1.275850 -1.113230 
1.731030 2.006000 -0.805942 
1.453750 0.902464 -0.823419 
1.680670 0.946343 -1.368540 
1.644470 1.222220 -1.155960 
1.857350 1.771760 -1.400240 
1.734910 2.009660 -0.805193 
1.418780 0.304373 -0.951150 
1.396650 0.547117 -0.922088 
1.322420 0.241044 -0.763578 
1.521190 0.784624 -1.156270 
1.406630 0.615759 -0.914252 
1.636620 -0.312213 -1.365660 
1.940710 2.001290 -1.225680 
1.298780 1.105940 -0.845114 
1.356990 0.800844 -0.794033 
1.312890 0.685835 -0.752911 
1.387090 0.002671 -0.864721 
1.311590 1.124240 -0.838446 
1.558000 1.177890 -0.774703 
1.504250 0.071421 -1.153510 
1.428610 1.030900 -0.802575 
1.876310 1.938080 -1.447580 
1.498670 0.297994 -1.110070 
1.612320 0.649741 -1.321730 
1.388280 1.139650 -0.987708 
1.522170 1.004710 -0.970462 
1.351340 1.146300 -0.960359 
1.656530 1.177420 -1.467330 
1.520640 -0.113789 -1.099300 
1.743630 -0.293680 -1.537040 
1.465170 0.971952 -0.789200 
1.753770 -0.298160 -1.540050 
1.467110 1.037080 -0.805705 
1.389190 -0.179777 -0.830080 
1.648090 1.224670 -1.450070 
1.558350 0.782076 -1.193290 
1.487030 0.944315 -0.888154 
1.714190 -0.016709 -1.379290 
1.411260 -0.104067 -0.858425 
1.677180 0.938859 -1.231550 
1.470650 0.911034 -0.798972 
1.503680 1.112920 -0.910539 
1.403970 0.614092 -0.914586 
1.395080 -0.097928 -0.865147 
1.574300 -0.001985 -1.210490 
1.639480 0.635867 -1.367780 
1.722710 1.434630 -1.447170 
1.520490 -0.114103 -1.098990 
1.575540 -0.001990 -1.210030 
1.347740 0.846698 -0.798965 
1.341610 0.785982 -0.800076 
1.758790 0.743125 -1.550420 
1.516470 -0.112658 -1.100190 
1.394930 -0.098372 -0.865411 
1.630300 0.322886 -1.333410 
1.763780 0.411559 -1.533570 
1.734800 0.312166 -1.515990 
1.385050 0.023426 -0.868099 
1.445330 -0.030714 -0.949414 
1.465820 0.355211 -1.050410 
1.356820 1.361470 -0.848133 
1.343500 0.787100 -0.799400 
1.353330 1.131700 -0.897789 
1.305740 1.115050 -0.844751 
1.311730 1.237940 -0.823048 
1.800490 1.141010 -0.983830 
1.385740 0.023103 -0.867633 
1.340790 0.786212 -0.801319 
1.369820 0.671558 -0.844655 
1.679480 1.009160 -1.377590 
1.371340 0.672604 -0.843781 
1.489670 0.561413 -1.093610 
1.326670 1.145290 -0.830155 
1.798000 1.133910 -0.984677 
1.701070 1.355920 -1.449310 
1.422510 -0.026037 -0.955324 
1.374370 0.011490 -0.872682 
1.512270 1.237020 -1.209360 
1.449630 0.729914 -1.165100 
1.735730 -0.324261 -1.455960 
1.394470 0.338554 -0.893041 
1.362290 1.169840 -0.956852 
1.960020 1.841520 -1.305830 
1.675080 1.164610 -1.385820 
1.581230 0.717961 -1.244780 
1.840590 1.878450 -1.453500 
1.550670 1.133160 -0.877527 
1.396210 0.342829 -0.892514 
1.711630 -0.065198 -1.428210 
1.518690 1.095280 -0.880406 
1.594310 0.120509 -1.248220 
1.548310 0.560493 -1.156140 
2.104180 2.454930 -1.491300 
1.390950 -0.179319 -0.830807 
1.354810 0.184115 -0.832578 
1.528890 0.551785 -1.154670 
1.878990 1.940940 -1.447220 
1.321830 0.241998 -0.763321 
1.527220 1.212190 -1.221200 
1.368990 0.584261 -0.862659 
1.720990 1.128160 -1.268980 
1.387030 1.121630 -0.808992 
1.377790 1.107760 -0.813463 
1.844970 2.140440 -1.540830 
1.824790 1.967060 -1.502120 
1.742010 1.725570 -1.503680 
1.706130 0.970328 -1.309860 
1.729700 1.179680 -1.520500 
1.842070 2.134760 -1.540300 
1.673270 1.167630 -1.383140 
1.359740 0.584992 -0.839207 
1.715610 1.893530 -0.765212 
1.510540 1.180100 -1.186500 
1.988680 2.104580 -1.354800 
1.508930 0.717948 -1.127440 
1.480740 0.928805 -0.811875 
1.530090 0.552517 -1.153770 
1.997860 2.288970 -1.424470 
1.414880 0.722520 -0.948550 
1.567270 0.513171 -1.219320 
1.674690 -0.303434 -1.434840 
1.725330 1.153490 -1.335240 
1.723240 1.597920 -1.497190 
1.369940 0.671594 -0.843073 
1.706350 0.971446 -1.310400 
1.766140 1.903450 -1.551300 
1.399050 1.148050 -0.981770 
1.472840 0.824545 -0.915527 
1.865570 2.208110 -1.541130 
1.337090 0.781254 -0.801021 
1.836240 1.982650 -1.496110 
1.752390 0.406153 -1.529020 
1.491560 0.873822 -0.840316 
1.463240 1.002760 -0.780306 
1.372940 1.101160 -0.814081 
1.837350 1.984300 -1.492910 
1.724360 1.151930 -1.336010 
1.538860 1.116660 -0.870944 
2.001140 2.238550 -1.385760 
1.589890 0.426302 -1.261710 
1.444600 0.835057 -0.770962 
1.841590 2.084210 -1.516450 
1.507490 0.322386 -1.120760 
1.907050 2.230810 -1.500590 
1.543030 1.122100 -0.973482 
1.827730 2.065180 -1.516080 
1.937530 2.209940 -1.452640 
1.720540 1.484390 -1.462640 
1.665580 1.172440 -1.421230 
1.442060 0.590266 -0.991443 
1.998130 2.254410 -1.310850 
1.761560 1.273720 -1.112540 
1.797840 1.641680 -1.413710 
1.379740 0.003709 -0.871182 
1.463150 0.828860 -0.873148 
1.614450 0.909782 -1.142280 
1.799760 1.143170 -1.178030 
1.850580 2.097540 -1.517200 
1.529210 0.550760 -1.155130 
1.708850 0.548721 -1.497190 
1.817370 2.044680 -1.647320 
1.548260 0.440323 -1.194250 
1.719710 1.589860 -1.494540 
1.633960 0.323753 -1.332010 
1.713510 1.520700 -1.475390 
1.446970 -0.029904 -0.947533 
1.746710 1.619900 -1.593180 
1.656870 0.853939 -1.362720 
1.834720 -0.210081 -1.612060 
1.402350 1.151510 -0.978267 
1.769950 1.051610 -1.209460 
1.870030 1.700280 -1.350040 
1.450510 -0.032888 -0.947760 
1.537810 1.175610 -1.235170 
1.563730 0.663455 -1.222480 
1.401850 1.151650 -0.979822 
1.757590 1.591900 -1.575170 
1.430170 0.732191 -0.944850 
1.749550 1.583540 -1.456740 
1.467370 0.457712 -1.039250 
1.851120 2.022620 -1.477370 
1.588080 0.120292 -1.247940 
1.696480 1.184990 -1.529310 
1.668600 0.998313 -1.376900 
1.826910 1.968840 -1.502770 
1.828430 1.596000 -1.378230 
1.803440 1.647780 -1.414260 
1.735210 0.879582 -1.548560 
1.788070 1.849980 -0.907791 
1.691220 1.388700 -1.488260 
1.736970 0.880520 -1.548110 
1.750310 1.584530 -1.457160 
1.706360 1.191550 -1.526060 
1.631950 0.323269 -1.332900 
1.710460 0.549579 -1.496910 
1.550360 0.440761 -1.194310 
1.756400 1.625260 -1.469850 
1.737070 1.193410 -1.519220 
1.755520 0.404071 -1.529710 
1.745070 1.943210 -0.749163 
1.752560 1.626440 -1.591270 
1.766550 1.602790 -1.576050 
1.691220 1.388980 -1.488700 
1.895900 1.962050 -1.410970 
1.715810 1.046520 -1.339270 
1.555290 0.779827 -1.193940 
1.690890 1.348930 -1.452600 
1.558850 0.219789 -1.198750 
1.852460 1.904800 -1.451070 
1.440010 0.589904 -0.992282 
1.721870 1.354330 -1.542200 
1.553930 0.777145 -1.193590 
1.488010 1.177660 -1.087460 
1.782790 1.841300 -0.904372 
1.686330 -0.308534 -1.439230 
1.701080 1.368370 -1.452510 
1.533970 1.166730 -1.239930 
1.782250 1.840560 -0.904444 
1.421020 1.178540 -1.059900 
1.715740 1.047920 -1.337690 
1.483310 0.583286 -1.080270 
1.364650 1.171340 -0.957887 
1.656050 1.178400 -1.467170 
1.677920 0.808018 -1.428900 
1.397260 1.152890 -0.982760 
1.752680 1.626340 -1.589510 
1.651310 1.219270 -1.457220 
1.846160 -0.291926 -1.675120 
1.452730 1.212450 -1.087250 
1.586810 -0.093112 -1.238130 
1.491520 0.562067 -1.091370 
1.621080 0.915055 -1.141640 
1.487260 0.299282 -1.069160 
1.735870 0.751711 -1.534830 
1.411110 1.200890 -1.012900 
1.690170 1.386620 -1.489450 
1.697400 1.149480 -1.288040 
1.583530 -0.110173 -1.242330 
1.431680 0.397199 -0.981252 
1.605050 0.689945 -1.306910 
1.476010 0.352384 -1.064830 
1.832830 -0.288449 -1.673360 
1.723980 1.908160 -0.760837 
1.785380 0.643815 -1.674680 
1.746000 1.470580 -1.555270 
1.545310 1.069400 -0.959963 
1.728390 0.354897 -1.499630 
1.566120 0.886361 -1.060310 
1.502730 1.005440 -0.924471 
1.789590 1.946080 -0.881880 
1.444460 0.591567 -0.990128 
1.709690 0.549593 -1.496490 
1.766750 1.602250 -1.575240 
1.874760 1.704290 -1.349100 
1.537300 1.057790 -0.963930 
1.693840 1.146970 -1.291410 
1.666740 -0.008721 -1.370420 
1.484270 0.773966 -1.054760 
1.662120 1.163160 -1.422960 
1.887240 2.082850 -1.474630 
1.693490 1.392370 -1.474470 
1.747410 1.520170 -1.466390 
1.599950 0.756727 -1.281000 
1.712320 1.445230 -1.522870 
1.736220 1.565700 -1.572210 
1.597970 1.222120 -1.375970 
1.719040 1.590270 -1.494680 
1.718150 1.523920 -1.473220 
1.744150 0.735267 -1.545870 
1.504630 0.715197 -1.127200 
1.686700 0.996149 -1.465090 
1.551850 1.131000 -0.969126 
1.797290 1.045080 -1.618130 
1.708970 1.196380 -1.531740 
1.556690 0.778407 -1.194020 
1.513930 1.244550 -1.199450 
1.596750 -0.111146 -1.239660 
1.619410 0.110706 -1.272460 
1.438030 0.579706 -0.975501 
1.493700 0.775519 -1.081160 
1.600310 1.174800 -1.360890 
1.742170 -0.175498 -1.597890 
1.707060 0.995014 -1.336110 
1.616670 0.910404 -1.145500 
1.717950 0.909346 -1.295910 
1.458940 0.660748 -0.999619 
1.851630 1.659090 -1.324630 
1.597590 0.799697 -1.271870 
1.522750 1.195510 -1.195330 
1.648530 0.913548 -1.376770 
1.578020 0.339135 -1.227420 
1.732580 1.183850 -1.520510 
1.653110 1.220460 -1.457780 
1.837230 1.217740 -1.680270 
1.596790 0.641884 -1.283470 
1.509160 1.233250 -1.208250 
1.469860 0.349518 -1.069470 
1.618830 0.112498 -1.271630 
1.533980 0.376604 -1.136120 
1.507090 1.227740 -1.184490 
1.849470 0.798779 -1.747630 
1.662460 -0.068931 -1.346780 
1.517490 1.187810 -1.199350 
1.623340 0.111989 -1.270410 
1.617180 0.110771 -1.272970 
1.489690 0.355499 -1.060270 
1.715480 1.346950 -1.541740 
1.636850 -0.061970 -1.348970 
1.551260 1.204240 -1.253970 
1.561000 0.074468 -1.166660 
1.832850 1.147200 -1.013940 
1.747100 0.460778 -1.554300 
1.715410 0.479395 -1.479200 
1.510220 0.780474 -1.129780 
1.827640 0.023799 -1.654620 
1.458480 0.452622 -1.066430 
1.517400 0.892981 -0.977027 
1.599570 0.118386 -1.244330 
1.547860 1.074700 -0.955698 
1.723090 0.352695 -1.500720 
1.543840 0.867706 -1.069000 
1.656120 0.985754 -1.378600 
1.821600 0.661222 -1.683030 
1.616140 1.233010 -1.392760 
1.517070 1.248880 -1.198580 
1.481330 0.766590 -1.088470 
1.567890 0.666059 -1.218720 
1.581510 0.339252 -1.227010 
1.757560 1.011930 -1.611970 
1.733020 0.879404 -1.546950 
1.862390 0.170429 -1.757320 
1.628850 1.232040 -1.126530 
1.807720 1.904240 -1.631090 
1.760640 1.275160 -1.112610 
1.743690 0.755356 -1.535200 
1.771380 1.286970 -1.109640 
1.535710 0.066081 -1.154750 
1.546790 0.874117 -1.030450 
1.483750 0.778392 -1.059620 
1.710200 0.548326 -1.497200 
1.513600 1.184970 -1.185730 
1.484090 1.227200 -1.152080 
1.676200 1.117480 -1.379490 
1.514000 1.184980 -1.186790 
1.509700 0.322261 -1.120200 
1.553680 1.210370 -1.302990 
1.520160 0.858088 -0.986920 
1.409400 1.197860 -1.013170 
1.631280 0.070301 -1.323050 
1.534330 0.791138 -1.158290 
1.613980 0.397658 -1.312350 
1.597770 1.222890 -1.375030 
1.614520 0.112360 -1.274690 
1.684050 0.995296 -1.457410 
1.504130 1.222120 -1.185610 
1.417710 1.151830 -1.024610 
1.736910 1.427440 -1.420690 
1.611060 1.202140 -1.406180 
1.536820 1.194340 -1.092200 
1.812120 1.910810 -1.631980 
1.795820 1.879210 -1.507260 
1.723810 1.356860 -1.542870 
1.728510 1.496260 -1.460870 
1.507660 1.189780 -1.190050 
1.694480 1.152460 -1.292380 
1.501570 0.623172 -1.104450 
1.757210 1.798430 -1.567350 
1.682580 0.889816 -1.445140 
1.462910 0.742816 -1.033190 
1.657750 0.987550 -1.379070 
1.557400 1.176550 -1.266760 
1.886720 0.490819 -1.798400 
1.642120 0.549892 -1.338180 
1.857780 1.789650 -1.682940 
1.831110 0.023941 -1.656450 
1.803700 1.145790 -0.981226 
1.851770 0.798105 -1.746870 
1.553270 1.216110 -1.084850 
1.559920 1.179560 -1.289690 
1.787790 1.780880 -1.606070 
1.616590 0.696039 -1.330340 
1.477350 0.762426 -1.053620 
1.593250 0.797364 -1.274810 
1.887020 0.491710 -1.798590 
1.801970 1.100450 -1.122670 
1.582830 0.788471 -1.279090 
1.669400 1.257180 -1.482440 
1.486300 0.298998 -1.068400 
1.539500 0.444778 -1.145230 
1.482640 1.226590 -1.135840 
1.506880 0.626288 -1.101970 
1.813650 0.659513 -1.681360 
1.728630 0.353658 -1.498570 
1.470520 0.356341 -1.048080 
1.810810 0.767920 -1.699150 
1.872110 1.920040 -1.415720 
1.722210 1.142580 -1.348410 
1.498010 1.191220 -1.081410 
1.598140 1.224410 -1.373930 
1.564430 1.223650 -1.303020 
1.895730 1.526330 -1.783620 
1.633350 0.545554 -1.340420 
1.566010 0.664218 -1.219880 
1.890330 0.491402 -1.799570 
1.711140 0.479119 -1.480210 
1.612400 0.397556 -1.313100 
1.880770 0.068362 -1.753030 
1.814900 0.410454 -1.674100 
1.481620 0.584742 -1.068230 
1.736450 1.572390 -1.555420 
1.887110 0.490540 -1.798630 
1.835390 0.403003 -1.699180 
1.696890 0.899981 -1.449020 
1.525470 0.429640 -1.208150 
1.457110 1.217270 -1.082570 
1.680400 -0.011036 -1.371570 
1.839350 1.956610 -1.638040 
1.547730 0.747155 -1.101160 
1.828670 1.963130 -1.489500 
1.454300 1.213860 -1.086360 
1.748700 0.840964 -1.566580 
1.806270 -0.209946 -1.608140 
1.621880 1.216210 -1.406760 
1.821590 1.907920 -0.886286 
1.618980 0.696406 -1.331210 
1.741200 1.709800 -1.518450 
1.736020 1.454940 -1.556200 
1.717160 1.082830 -1.517110 
1.588580 1.216600 -1.348390 
1.511560 0.637122 -1.135580 
1.548860 1.201270 -1.254360 
1.825910 1.111810 -1.699300 
1.814480 0.770370 -1.699290 
1.733400 1.696700 -1.520060 
1.602400 0.805787 -1.272260 
1.832350 0.942232 -1.729650 
1.497220 0.679649 -1.096440 
1.477230 1.208800 -1.089270 
1.729220 1.027330 -1.199580 
1.653460 0.555092 -1.381790 
1.560540 1.196870 -1.160310 
1.884900 1.851020 -1.389980 
1.563550 0.769331 -1.188330 
1.559530 0.510103 -1.206910 
1.567540 0.773245 -1.186320 
1.675310 0.804247 -1.429250 
1.551270 -0.122214 -1.083130 
1.801870 -0.203673 -1.603060 
1.589320 -0.003677 -1.202620 
1.692500 0.549793 -1.465690 
1.823420 0.251952 -1.650510 
1.610730 0.476545 -1.280950 
1.662060 0.927312 -1.373020 
1.818550 0.412117 -1.676130 
1.506190 1.229120 -1.161350 
1.763780 1.738760 -1.549440 
1.600380 1.224810 -1.376640 
1.674760 1.393490 -1.524960 
1.738220 1.450590 -1.551090 
1.600870 -0.097269 -1.243260 
1.769840 0.508297 -1.606950 
1.820820 0.252133 -1.651580 
1.764470 1.642460 -1.591910 
1.747460 1.711790 -1.550420 
1.504710 0.625074 -1.104730 
1.701590 1.429410 -1.522360 
1.580140 0.716661 -1.245440 
1.824100 1.108540 -1.700730 
1.859330 0.983115 -1.756660 
1.673240 1.201150 -1.471580 
1.642870 0.811748 -1.359170 
2.017570 2.240620 -1.360790 
1.704430 1.501430 -1.470130 
1.543050 1.232850 -1.239840 
1.543750 -0.118908 -1.088310 
1.705210 0.993362 -1.336540 
1.560860 0.768828 -1.189170 
1.709280 1.042430 -1.340590 
1.593990 0.426040 -1.257780 
1.541110 0.436749 -1.168650 
1.668270 1.095930 -1.394640 
1.520740 0.784955 -1.154210 
1.705650 1.436830 -1.526140 
1.471830 1.199850 -1.092980 
1.763210 1.280010 -1.111990 
1.635490 1.194720 -1.298980 
1.676780 0.986414 -1.448290 
1.656530 1.177090 -1.467020 
1.490120 1.233550 -1.138890 
1.729590 1.125250 -1.247170 
1.557590 0.504331 -1.183010 
1.604990 0.689860 -1.306380 
1.550950 0.380557 -1.126810 
1.711190 1.461790 -1.534850 
1.919700 1.403980 -1.876740 
1.585750 0.423463 -1.264220 
1.759730 0.982581 -1.586380 
1.809200 1.020310 -1.671050 
1.830900 1.116420 -1.700270 
1.575530 0.712076 -1.247770 
1.650300 0.552266 -1.382660 
1.699490 0.988949 -1.340750 
1.727210 1.428450 -1.432430 
1.871180 0.834254 -1.797940 
1.968890 2.043470 -1.278580 
1.837070 0.632577 -1.732570 
1.630990 0.894183 -1.159520 
1.815810 0.252269 -1.648930 
1.835190 0.403657 -1.699590 
1.647870 0.880263 -1.238390 
1.656410 1.239800 -1.147640 
1.673760 1.265340 -1.483640 
1.546330 0.711050 -1.190810 
1.712570 1.026390 -1.497160 
1.600610 0.644217 -1.282820 
1.709360 1.022680 -1.497350 
1.560590 0.505379 -1.181610 
1.569360 0.218886 -1.193270 
1.663300 0.526967 -1.403650 
1.754200 1.099610 -1.226430 
1.712040 1.026460 -1.497080 
1.911510 1.283250 -1.860490 
1.745380 1.610520 -1.470850 
1.803440 1.141730 -0.982588 
1.673860 1.223460 -1.227670 
1.520320 1.253090 -1.198670 
1.869520 1.025180 -1.774590 
1.551030 0.713903 -1.188500 
1.726060 0.476676 -1.471920 
1.809990 -0.201271 -1.605080 
1.707430 1.021860 -1.497320 
1.771260 0.842664 -1.616220 
1.752090 0.578995 -1.573680 
1.664760 1.168920 -1.422460 
1.854550 1.784230 -1.683980 
2.018210 2.240150 -1.360930 
1.936350 1.516190 -1.877790 
1.945330 1.607140 -1.886010 
1.641080 1.216670 -1.157340 
1.589730 0.471327 -1.290120 
1.602470 0.666798 -1.308770 
1.679380 0.808714 -1.428720 
1.784550 1.844800 -0.905445 
1.855010 1.771970 -1.398980 
1.842270 0.256216 -1.652690 
1.833680 0.942353 -1.730140 
1.853540 0.797957 -1.747980 
1.725150 1.357830 -1.543510 
1.709580 0.932588 -1.309710 
1.726510 1.121900 -1.247500 
1.830930 1.737660 -1.403480 
1.581230 0.339458 -1.225800 
1.705060 -0.053385 -1.417370 
1.664320 0.846929 -1.415790 
1.802840 1.021890 -1.670030 
1.779100 1.124890 -1.195460 
1.674430 1.103660 -1.394000 
1.707920 1.109910 -1.494500 
1.833830 1.738660 -1.405530 
1.584360 0.671270 -1.236080 
1.724660 1.574140 -1.478170 
1.772200 1.697450 -1.593130 
1.862560 1.174660 -1.774290 
1.682740 1.132850 -1.387400 
1.922200 1.411010 -1.890390 
1.603080 1.184950 -1.361070 
1.853990 0.591030 -1.731630 
1.735050 1.688930 -1.548950 
1.672460 1.163500 -1.384610 
1.763040 0.985509 -1.585500 
1.680180 -0.039538 -1.361640 
1.856160 0.964270 -1.737660 
1.680480 0.914611 -1.277700 
1.572310 0.507832 -1.173530 
1.905700 1.695060 -1.782850 
1.860460 1.796950 -1.684420 
1.663990 0.527757 -1.403540 
1.743550 1.704530 -1.549870 
1.850840 0.785474 -1.720730 
1.715540 0.474139 -1.486160 
1.817720 0.614989 -1.736970 
1.643720 1.214290 -1.463900 
1.548340 1.199800 -1.254920 
1.799440 1.129000 -1.180020 
1.911560 1.226820 -1.856420 
1.773560 1.113630 -1.195450 
1.557810 1.176440 -1.298650 
1.823870 1.032320 -1.672370 
1.692990 1.103780 -1.458130 
1.701470 1.348070 -1.521370 
1.631420 1.207400 -1.417150 
1.763060 1.281800 -1.110410 
1.873930 1.221100 -1.778980 
1.938730 1.490580 -1.915570 
1.614580 0.909970 -1.142680 
1.583280 1.178440 -1.331300 
1.889460 0.140802 -1.760790 
1.555160 1.172820 -1.267190 
1.707900 0.548318 -1.496520 
1.745650 0.838700 -1.566990 
1.609350 0.666226 -1.302250 
1.593160 1.223210 -1.345820 
1.697250 1.157300 -1.463140 
1.920480 1.795270 -1.802740 
1.798330 0.685964 -1.657180 
1.907980 0.142179 -1.765270 
1.733070 1.184530 -1.520080 
1.707110 -0.052211 -1.414800 
1.684470 0.910827 -1.291000 
1.767610 1.287760 -1.107470 
1.697580 1.050610 -1.350780 
1.713460 0.905204 -1.297050 
1.897900 1.684250 -1.782010 
1.601030 0.473580 -1.289290 
1.606450 1.189560 -1.359320 
1.619900 -0.116198 -1.229880 
1.809650 0.657127 -1.680250 
1.616980 1.233250 -1.392220 
1.656360 0.925125 -1.371370 
1.705430 0.970337 -1.321470 
1.711740 1.064020 -1.344250 
1.551270 1.166210 -1.270110 
1.613950 0.396197 -1.311030 
1.772540 0.459556 -1.587680 
1.737680 1.656190 -1.485810 
1.887700 0.141628 -1.761770 
1.709110 0.901023 -1.299650 
1.902120 1.690710 -1.782660 
1.542550 1.191710 -1.307950 
1.735430 1.616650 -1.571630 
1.875020 1.309420 -1.762720 
1.613240 -0.115473 -1.235020 
1.619380 0.699754 -1.328970 
1.892700 0.689039 -1.828720 
1.990390 2.040710 -1.991720 
1.739040 1.431190 -1.421200 
1.672300 1.166390 -1.383590 
1.977880 1.279350 -1.915150 
1.925190 1.226460 -1.897920 
1.943250 1.662880 -1.924790 
1.639040 1.182000 -1.429820 
1.599650 0.472990 -1.283190 
1.624140 0.533865 -1.300350 
1.637300 0.068328 -1.320020 
1.993270 0.137658 -1.932340 
1.856770 0.218997 -1.705730 
1.658860 0.647331 -1.393760 
1.774570 1.327070 -1.573410 
1.929500 0.945090 -1.929530 
1.625440 0.071234 -1.325300 
1.668050 -0.070171 -1.347550 
1.598720 0.641611 -1.284730 
2.062260 -0.154564 -1.982100 
1.766540 0.457361 -1.588870 
1.915620 1.278930 -1.836720 
1.795390 0.683797 -1.657910 
1.719050 1.581440 -1.521010 
1.921030 1.222500 -1.896940 
1.697640 1.157780 -1.463830 
1.711790 1.463990 -1.536760 
1.946670 1.802140 -1.916240 
1.586500 1.229900 -1.325780 
1.653290 1.255900 -1.460660 
1.656170 0.851345 -1.363460 
1.776900 0.606764 -1.620060 
1.681370 0.887382 -1.449920 
1.912220 1.287650 -1.858590 
1.650620 1.253040 -1.459910 
1.910050 0.886417 -1.862620 
1.693140 1.362890 -1.512110 
1.666720 0.694737 -1.446010 
1.728470 1.262100 -1.227090 
1.895980 1.526120 -1.784000 
1.909200 1.795920 -1.224150 
1.626150 1.199480 -1.419100 
1.794540 0.596702 -1.577730 
1.970980 2.026010 -1.943790 
1.823730 0.405651 -1.782260 
1.582460 0.581826 -1.247720 
1.929950 1.491240 -1.886770 
1.919380 1.408470 -1.883370 
1.594030 0.426404 -1.257740 
1.896030 1.527800 -1.783410 
1.750780 0.405291 -1.528130 
1.931220 0.186377 -1.828570 
1.640130 0.067606 -1.317840 
1.966590 1.467410 -1.957870 
1.961250 1.894790 -1.923530 
1.653590 0.644478 -1.396530 
1.553890 0.602525 -1.380780 
1.857420 1.147680 -1.749710 
1.678680 0.885784 -1.449410 
1.955650 1.454680 -1.954630 
1.774170 1.480220 -1.547660 
1.993410 0.141801 -1.932230 
1.665830 0.528038 -1.401290 
2.113610 -0.290243 -2.060030 
1.638420 0.810523 -1.358360 
1.802590 1.130900 -1.179010 
1.857730 0.219561 -1.706650 
1.686230 0.892244 -1.447910 
1.656920 1.248830 -1.495790 
1.962550 1.896420 -1.925460 
1.919920 1.219180 -1.898110 
1.947470 0.959278 -1.932920 
1.830940 1.207750 -1.701010 
1.874910 0.654409 -1.805780 
1.763390 0.457517 -1.588840 
1.971890 2.027560 -1.945060 
1.618980 0.397849 -1.309420 
1.649270 0.415996 -1.362010 
1.910600 1.281870 -1.858690 
1.940340 1.657640 -1.924750 
1.703680 0.966069 -1.321930 
1.692010 0.999042 -1.472060 
1.869250 0.833269 -1.799350 
1.967840 0.011851 -1.886540 
1.584140 1.209180 -1.346640 
1.827450 0.400851 -1.700390 
1.804830 1.093340 -1.697410 
1.909140 1.327940 -1.857800 
1.605740 0.664285 -1.304210 
1.750730 1.120530 -1.557570 
1.969290 1.858100 -1.903860 
1.734160 0.753425 -1.543430 
1.754180 1.124520 -1.556870 
1.655970 0.555943 -1.379680 
1.803670 1.153810 -1.180840 
1.743680 1.200510 -1.526960 
1.799310 1.148910 -1.183220 
1.694040 1.145540 -1.277510 
1.779280 0.849029 -1.614410 
1.944730 1.837550 -1.926750 
1.707750 1.291160 -1.538410 
2.036590 -0.145470 -1.972760 
1.922450 1.407490 -1.877730 
1.890860 -0.000866 -1.735450 
1.769420 0.842616 -1.616790 
1.656190 0.429768 -1.374600 
1.654610 1.223200 -1.455820 
2.007600 0.137209 -1.934360 
1.703020 0.873293 -1.477620 
1.659740 0.859141 -1.370230 
1.922220 1.410670 -1.880830 
1.637330 0.069196 -1.318250 
1.942520 1.495520 -1.915500 
1.651950 0.851866 -1.374510 
1.867170 0.830808 -1.798360 
1.633740 0.698630 -1.364930 
1.724160 1.140370 -1.343980 
1.973380 1.240790 -2.016940 
1.835490 0.513450 -1.713240 
1.747040 0.839773 -1.566620 
1.843540 -0.066564 -1.644330 
1.627560 0.575138 -1.333220 
1.768140 1.561870 -1.572460 
1.712770 1.475310 -1.539310 
1.725560 1.173010 -1.335050 
1.673360 0.987022 -1.452750 
1.911190 1.273940 -1.836500 
2.024470 1.016350 -2.048390 
1.683510 1.377060 -1.480530 
2.098550 0.143260 -2.107260 
1.681850 1.032020 -1.454500 
1.859020 1.143780 -1.761230 
1.788410 0.319806 -1.582430 
1.811110 0.185649 -1.640920 
1.709090 0.479093 -1.480150 
1.838610 -0.064968 -1.645550 
1.626770 0.574350 -1.334420 
1.563970 1.222120 -1.303150 
1.635840 0.808853 -1.357670 
1.692500 1.182280 -1.533460 
1.717870 1.089950 -1.319690 
2.021430 1.086450 -2.033130 
1.992180 1.226200 -2.011920 
2.026380 1.017220 -2.049020 
1.943050 1.228420 -1.902310 
1.652080 0.570327 -1.368380 
1.851800 0.438094 -1.719950 
2.037670 0.813364 -2.023980 
1.866250 1.022850 -1.775630 
1.890680 -0.001015 -1.735810 
1.941350 1.666040 -1.893700 
1.645710 1.215010 -1.460740 
1.640980 0.904433 -1.393580 
1.729150 1.434130 -1.553980 
1.977480 1.772880 -1.998160 
1.626070 1.223190 -1.404110 
1.825120 0.661325 -1.684490 
1.870190 1.476140 -1.737010 
2.009080 1.075700 -2.030860 
1.631010 0.322887 -1.332640 
1.937390 1.049480 -1.908120 
1.648230 0.568246 -1.370570 
1.603240 1.184940 -1.359690 
1.994430 1.845240 -2.006140 
1.981920 1.902040 -1.987730 
1.707800 0.972828 -1.323870 
1.737710 1.447670 -1.552950 
1.884820 0.490298 -1.798200 
2.017610 0.804174 -2.017800 
1.884550 1.060740 -1.803290 
1.816830 0.409435 -1.672810 
1.613200 0.667392 -1.301290 
1.665760 1.267760 -1.493800 
1.617550 1.240190 -1.390110 
1.594060 1.171210 -1.361070 
1.986260 1.789740 -1.999040 
1.761220 0.983861 -1.586030 
1.660690 0.997393 -1.410600 
1.931270 0.183976 -1.828540 
1.743200 0.686294 -1.545220 
1.963190 1.846920 -1.915690 
1.702910 0.966927 -1.321880 
1.758210 1.364430 -1.530530 
1.780140 0.848219 -1.615690 
1.977670 1.967280 -1.931980 
1.777160 0.339844 -1.592400 
1.692850 0.898634 -1.446640 
1.782070 0.463205 -1.585270 
1.939130 1.591160 -1.895140 
1.983380 1.826980 -2.003150 
1.878520 1.224370 -1.780520 
1.833230 1.211220 -1.699910 
1.710910 1.333870 -1.545250 
1.669860 1.229450 -1.210510 
1.690840 1.101110 -1.459050 
1.617140 1.240490 -1.390500 
1.907810 1.309560 -1.861560 
1.758490 0.981969 -1.586240 
1.821770 1.295800 -1.655110 
1.616190 0.655751 -1.324220 
1.979950 0.536343 -1.941810 
1.848610 0.802002 -1.750080 
1.886190 0.489494 -1.797870 
1.721100 0.648170 -1.498500 
1.787590 0.014316 -1.566680 
1.796140 1.400190 -1.598500 
1.869150 0.469978 -1.741900 
1.980760 0.622710 -1.951530 
1.956460 1.811190 -1.957090 
2.131700 -0.261204 -2.105620 
2.097450 0.142006 -2.107280 
1.838670 0.224052 -1.648660 
1.619390 0.658009 -1.322290 
1.665250 1.266130 -1.494400 
1.651610 0.988725 -1.386940 
1.732010 1.439270 -1.554490 
1.978200 1.244980 -2.019100 
2.149960 -0.083886 -2.143400 
1.686990 1.341390 -1.455360 
1.899460 0.722080 -1.839710 
1.730580 1.496270 -1.530890 
1.938570 1.050430 -1.908600 
1.780240 0.319894 -1.584870 
1.775050 0.509591 -1.604780 
2.047240 -0.144402 -1.978260 
1.782370 0.319902 -1.584650 
2.060830 0.026351 -2.008280 
1.982370 0.700659 -1.970930 
1.974090 1.816290 -2.002680 
1.742680 0.761619 -1.536390 
1.958540 1.204610 -1.949380 
1.986510 0.203997 -1.922500 
1.694890 0.995963 -1.465950 
1.940910 0.954917 -1.932230 
1.732260 0.688956 -1.553400 
1.789070 1.287340 -1.612900 
2.259450 1.560370 -1.933460 
2.006560 1.241250 -2.010440 
1.962550 1.822910 -1.958450 
1.703570 1.332470 -1.547810 
1.721550 0.516262 -1.519120 
1.708310 1.290400 -1.542590 
2.037210 -0.135358 -1.976660 
1.594740 1.244190 -1.353420 
1.903930 1.389540 -1.884120 
2.054570 -0.141144 -1.982590 
1.892970 0.688790 -1.828180 
1.858330 0.378099 -1.730230 
1.716220 1.133290 -1.299890 
1.684360 0.813631 -1.424850 
1.784670 1.583600 -1.569230 
1.718950 1.416160 -1.533320 
1.739130 1.575430 -1.554660 
1.719780 1.358080 -1.540830 
1.905700 1.275510 -1.860030 
1.781240 0.016386 -1.568320 
1.650230 1.222930 -1.458220 
1.971470 1.662710 -1.977000 
1.935510 1.222810 -1.901520 
1.668080 1.006660 -1.405350 
1.952980 1.164280 -1.941890 
1.664710 1.172040 -1.421670 
1.720440 1.418850 -1.532330 
1.788530 0.930797 -1.655200 
2.124340 0.256747 -2.149130 
1.850210 0.219083 -1.706240 
1.956740 1.815400 -1.955690 
1.670670 1.189410 -1.498960 
1.793960 0.934794 -1.654580 
1.703860 0.674214 -1.504280 
1.751870 0.698271 -1.570800 
1.697740 1.168990 -1.483640 
1.712260 1.474530 -1.539680 
1.793570 1.396800 -1.600400 
1.734760 1.444590 -1.553200 
1.871950 1.480030 -1.735580 
1.921500 1.799150 -1.800960 
2.021840 1.085950 -2.033930 
1.779380 0.339992 -1.591460 
1.823780 -0.009582 -1.612700 
1.795520 0.937521 -1.653020 
1.981140 0.536016 -1.942000 
1.762150 0.986718 -1.584350 
2.060660 0.488945 -2.076090 
1.937950 1.050020 -1.908970 
2.044820 0.438427 -2.046840 
1.997400 0.146754 -1.931130 
1.999990 1.232410 -2.016650 
1.782990 1.582280 -1.569650 
1.916480 1.790710 -1.800730 
1.791260 0.933429 -1.655250 
1.979400 1.855420 -2.008850 
1.671600 0.769971 -1.411340 
1.911190 1.373030 -1.849960 
1.982140 0.536187 -1.941780 
2.048580 0.437155 -2.048400 
1.936360 -0.105402 -1.765030 
1.817380 0.408933 -1.672090 
1.781680 1.568490 -1.586670 
1.810190 0.185345 -1.641890 
2.042640 1.227300 -2.074260 
1.797040 0.649383 -1.669590 
1.918560 1.517030 -1.890560 
1.793730 0.933985 -1.654710 
1.970270 1.837800 -1.956960 
1.789310 0.584397 -1.630610 
1.673340 1.165860 -1.384470 
1.694280 1.153130 -1.465720 
2.049180 0.434137 -2.049230 
1.781480 1.291350 -1.580660 
1.946080 1.230530 -1.902250 
1.898910 1.378490 -1.882310 
1.953760 1.653290 -1.950940 
1.937710 0.953057 -1.932710 
2.157010 -0.086317 -2.145570 
1.929790 1.260620 -1.921280 
2.455110 2.388510 -2.163710 
1.702790 1.364760 -1.447850 
1.978060 1.674810 -1.973580 
1.999110 0.140399 -1.932910 
2.055890 0.435082 -2.051240 
2.015230 1.080980 -2.031310 
1.952880 1.781480 -1.999750 
1.862000 1.454530 -1.733110 
1.979630 1.676520 -1.972590 
2.064020 0.489601 -2.076160 
1.987140 1.060500 -2.024290 
1.840020 -0.014259 -1.608010 
2.012170 1.076850 -2.031130 
1.683850 1.194460 -1.497540 
1.687690 0.946494 -1.452920 
1.769740 0.906760 -1.612200 
1.796380 1.401430 -1.598890 
1.682080 0.888909 -1.445080 
1.704950 0.650852 -1.494080 
1.702010 0.881338 -1.483930 
2.331000 1.567470 -2.116030 
1.869670 0.724080 -1.793690 
1.685980 0.945048 -1.453520 
1.749360 0.462447 -1.552140 
1.842470 0.442301 -1.739310 
1.849320 0.218194 -1.706550 
1.933670 -0.104738 -1.763480 
2.040260 0.870832 -2.074490 
2.036300 1.243660 -2.089740 
2.037490 1.221400 -2.085170 
1.794570 1.601420 -1.565420 
1.718670 1.357070 -1.542050 
2.037200 0.866267 -2.072690 
1.840030 1.697510 -1.639710 
2.013870 0.728968 -2.029080 
1.719280 1.221760 -1.536080 
1.692200 1.182710 -1.533160 
1.770720 0.603159 -1.623160 
1.968890 1.216700 -1.950680 
1.699620 0.512509 -1.468610 
1.697130 1.371350 -1.517550 
2.084350 0.778221 -2.134350 
1.669970 1.307230 -1.468160 
1.688260 1.181930 -1.460020 
2.133220 0.256616 -2.150600 
1.641360 1.185450 -1.428800 
1.783910 1.293380 -1.579240 
1.874000 1.306200 -1.763210 
1.729250 1.434380 -1.555070 
1.881820 0.271414 -1.765360 
2.059550 1.242230 -2.089090 
1.939980 0.954327 -1.933420 
1.953470 1.844000 -1.952500 
1.719270 0.806263 -1.516710 
1.695390 1.187120 -1.531180 
1.675720 0.989483 -1.454450 
2.129160 -0.075920 -2.134690 
1.989070 0.683524 -1.983510 
1.779340 0.579824 -1.634890 
1.823790 0.459323 -1.679600 
1.918340 0.538468 -1.851960 
1.730510 0.754083 -1.540210 
1.914080 0.537402 -1.852340 
1.719320 0.885070 -1.503840 
1.888460 0.141452 -1.760210 
2.092840 -0.018686 -2.062930 
1.920670 1.215790 -1.913170 
2.045590 0.876742 -2.075720 
1.704900 1.352620 -1.520050 
1.858970 0.378951 -1.730300 
1.885790 0.682526 -1.807650 
1.837870 0.372136 -1.734240 
1.834730 1.212260 -1.700140 
1.946210 0.641499 -1.906940 
1.824780 1.109750 -1.701140 
1.912960 1.397830 -1.883940 
1.868200 1.472130 -1.737980 
1.882320 0.683758 -1.829080 
1.896450 0.069152 -1.794890 
1.858100 1.126210 -1.756200 
1.724230 0.351440 -1.500510 
2.140490 1.387030 -2.059400 
1.773440 0.841401 -1.626210 
2.028600 1.234940 -2.086910 
1.703890 1.285060 -1.539960 
1.748250 0.841061 -1.565790 
1.846720 1.348470 -1.696620 
1.980110 1.244980 -2.021850 
1.773020 1.145630 -1.554570 
1.859570 1.128370 -1.756210 
1.745750 1.141870 -1.535790 
1.950680 1.873330 -1.920510 
1.799320 1.081880 -1.701650 
2.071180 1.243110 -2.142360 
1.860750 1.017410 -1.775430 
2.552020 2.222480 -2.290590 
1.803920 0.654036 -1.667930 
1.821690 1.105420 -1.689210 
1.978060 1.632270 -1.961640 
1.849690 1.651090 -1.665520 
1.951810 1.346830 -1.951660 
1.879640 0.681565 -1.809980 
1.882140 0.069047 -1.752020 
2.150250 1.394840 -2.065340 
1.946110 1.831020 -1.952640 
1.745910 0.461436 -1.554340 
2.108010 0.476378 -2.145120 
1.902090 1.214520 -1.854060 
1.948250 0.316620 -1.878330 
1.969050 1.807720 -1.964560 
1.982700 1.823660 -2.003540 
2.099140 0.142903 -2.108140 
1.714240 1.068220 -1.486340 
1.980380 1.677590 -1.975720 
1.779090 1.286030 -1.580840 
1.898590 1.012380 -1.754650 
1.798280 0.517275 -1.640200 
1.820980 -0.073726 -1.607060 
1.873970 0.677185 -1.811200 
1.821270 1.107510 -1.686650 
1.726080 0.750157 -1.542100 
1.976780 1.378240 -1.956960 
1.700770 1.195790 -1.528750 
1.716470 0.646385 -1.503510 
1.833310 1.046360 -1.720060 
1.845930 1.060620 -1.716870 
1.974700 1.375540 -1.957160 
2.040690 1.224500 -2.074050 
2.023320 0.733383 -2.038030 
1.745700 0.833131 -1.552870 
1.933830 1.399520 -1.853580 
1.780370 1.288710 -1.581520 
2.041760 1.221840 -2.088110 
2.123980 -0.078098 -2.145080 
1.928920 1.472950 -1.914050 
2.150530 -0.084063 -2.142090 
1.672810 0.986112 -1.456610 
2.023290 0.807894 -2.017620 
1.937920 1.489000 -1.917300 
2.054870 0.731516 -2.139560 
1.741870 1.137380 -1.537580 
1.902450 1.326880 -1.865500 
1.824250 0.724359 -1.715550 
1.833280 0.614325 -1.727660 
2.123050 1.235820 -2.204120 
2.110320 0.478184 -2.144200 
1.740670 0.618379 -1.549160 
1.966040 0.301989 -1.908500 
1.664620 1.267430 -1.494920 
1.973840 0.008558 -1.882130 
1.741220 1.134980 -1.537660 
1.747570 1.145170 -1.534130 
1.843100 0.735894 -1.711340 
1.955600 0.302152 -1.909900 
1.913870 0.428069 -1.795100 
1.985750 1.255370 -2.027990 
1.845680 0.979163 -1.752090 
1.914670 1.406280 -1.881440 
1.705070 1.250520 -1.534730 
1.840680 0.659249 -1.714610 
1.783570 1.039080 -1.622620 
2.006270 1.334510 -2.059780 
1.751780 1.001590 -1.535790 
1.856340 1.141430 -1.762000 
1.669920 1.272740 -1.491500 
1.884630 0.158159 -1.761070 
1.949560 1.658050 -1.938020 
1.709210 1.362020 -1.514550 
1.922440 0.315468 -1.880640 
1.966430 0.302408 -1.908900 
1.785930 0.747015 -1.657490 
2.126070 1.235700 -2.204430 
1.739890 0.405670 -1.535390 
1.750710 0.624267 -1.544120 
1.879750 0.072739 -1.753830 
1.812390 0.185044 -1.640720 
1.954300 1.452070 -1.955060 
2.109420 0.477337 -2.143570 
1.924770 0.632302 -1.800450 
1.748170 0.754129 -1.568810 
1.971110 0.858332 -1.972870 
2.519120 2.484430 -2.176710 
1.909020 1.167400 -1.832400 
1.983090 0.867165 -1.972650 
1.954240 1.452860 -1.955770 
1.749030 0.573816 -1.556770 
1.919140 1.471860 -1.899620 
1.778240 0.637013 -1.627880 
1.776540 0.828490 -1.625080 
1.951720 1.162250 -1.940480 
1.897520 1.310890 -1.801350 
2.113320 1.133790 -2.191500 
1.785860 1.041660 -1.622040 
2.085080 -0.015875 -2.060640 
1.873490 0.911608 -1.804260 
1.946840 1.615970 -1.852080 
2.536530 2.166810 -2.311950 
1.851310 0.217904 -1.706070 
1.945650 0.635815 -1.909770 
2.053720 1.324910 -2.133420 
1.990960 0.043422 -1.909850 
1.916640 1.414360 -1.860170 
1.904360 1.330420 -1.866370 
1.932550 1.513180 -1.878300 
1.860830 1.450810 -1.725940 
1.867540 1.123260 -1.780360 
1.839670 0.585366 -1.737190 
1.771110 0.969131 -1.589880 
1.827000 1.476370 -1.659640 
1.983830 0.398605 -1.948260 
2.127930 -0.072449 -2.140490 
2.394760 1.893270 -2.037890 
1.883320 0.488368 -1.798760 
2.152300 1.261380 -2.208920 
1.871830 0.910391 -1.803760 
1.695750 1.187370 -1.530560 
1.777370 0.829051 -1.623850 
1.902290 0.968499 -1.854050 
2.477030 1.789320 -2.334060 
2.032350 1.234420 -2.084750 
1.969180 0.012208 -1.890950 
2.131450 0.256912 -2.153030 
2.557210 2.230000 -2.292550 
2.111050 -0.066790 -2.142170 
1.786360 0.784446 -1.646280 
1.818500 0.690581 -1.709230 
1.864310 0.658270 -1.766420 
1.787840 1.467930 -1.568720 
1.779710 1.136030 -1.594370 
2.534490 2.215400 -2.340970 
1.927940 1.493700 -1.874270 
1.936950 1.047250 -1.909120 
1.958390 1.171250 -1.941430 
1.802030 0.542948 -1.664530 
1.865710 1.468480 -1.738090 
1.738970 1.201510 -1.528650 
1.886480 1.034930 -1.817250 
1.849320 1.137580 -1.749810 
1.972780 1.664550 -1.971140 
1.872690 1.216830 -1.782020 
1.875960 1.223260 -1.779240 
1.978660 1.266020 -1.897350 
1.857610 1.126400 -1.756620 
1.777790 0.480725 -1.694010 
2.526610 2.050230 -2.303720 
1.969350 1.617980 -1.961680 
1.825190 1.109780 -1.686780 
1.844870 0.794555 -1.748780 
1.912030 1.681350 -1.800650 
2.121420 0.811296 -2.179470 
1.821810 1.027060 -1.691170 
2.455330 1.765760 -2.328480 
1.869310 1.032210 -1.795190 
2.137160 -0.075832 -2.136840 
2.101110 0.142753 -2.108090 
2.070770 1.342640 -2.134820 
1.828840 1.202440 -1.704260 
1.970960 1.228880 -1.983980 
2.133020 0.815722 -2.179410 
1.989920 0.044622 -1.909910 
1.952290 0.638483 -1.909500 
2.525690 2.202240 -2.339440 
1.993280 0.145523 -1.932270 
2.531620 2.039640 -2.320590 
2.055920 0.973950 -2.158580 
2.177550 0.689654 -2.237700 
2.052660 1.228650 -2.150020 
1.790280 0.929908 -1.659950 
2.087400 0.521494 -2.121680 
2.072800 0.957063 -2.115560 
1.841200 0.586897 -1.735780 
